ply
format ascii 1.0
element vertex 914
property float x
property float y
property float z
property uchar red
property uchar green
property uchar blue
property float weight
end_header
0.34498146 0.10840696 0.2157774 0 172 255 0.2961237
-0.56680506 -0.027489772 -0.2399682 0 0 128 0.0
-0.5663621 -0.21272871 -0.28538665 0 0 248 0.11764868
-0.37703064 -0.06731794 -0.21410522 0 156 255 0.27901307
-0.037352044 -0.053922344 0.22938395 0 100 255 0.2240294
-0.6409766 -0.1629857 0.19790955 255 228 0 0.65252286
-0.7720003 0.14610448 -0.02612386 230 255 26 0.6022833
0.9089255 0.0024868285 0.056570213 128 0 0 1.0
-0.45786828 -0.23238964 0.22647277 98 255 158 0.47171724
0.6547678 -0.21920499 -0.29087147 128 0 0 1.0
0.1797621 -0.16604453 0.041297123 0 0 128 0.0
-0.5575442 0.0034361219 0.34737065 255 224 0 0.6554005
-0.69955856 -0.048753966 -0.33664852 0 224 255 0.34623355
0.8919015 -0.13832514 -0.08365109 144 0 0 0.9847634
-0.3485307 0.061638407 0.29484308 0 0 255 0.12684914
-0.765756 -0.07780237 0.33954427 198 255 58 0.5692348
-0.43727916 -0.22490077 0.22628291 255 248 0 0.63377684
-0.21050331 0.18310587 0.2637906 0 0 128 0.0
-0.29077142 0.24056982 -0.22024399 0 0 128 0.0
-0.3858907 0.10676152 -0.2127762 0 0 255 0.12604405
0.22186856 0.19671243 -0.11489342 0 0 248 0.11994042
-0.40785104 0.018371684 0.10228401 0 0 128 0.0011038359
-0.85701483 -0.08155735 -0.32635397 232 0 0 0.898966
-0.9387385 -0.12598433 -0.25758287 128 0 0 1.0
-0.5518906 0.22346143 -0.21402083 0 176 255 0.30170542
0.65818524 -0.023966836 0.31498918 128 0 0 1.0
0.5529613 -0.11969788 -0.2847538 50 255 206 0.42468727
0.7235389 0.071722016 -0.14697957 254 255 1 0.626783
-0.97006524 -0.057930473 0.16504288 218 255 38 0.5901279
-0.14004458 -0.088265695 0.12867437 0 0 128 0.0
-0.49041852 -0.16315445 0.28018174 255 228 0 0.6546067
0.22963168 -0.10005804 -0.1888118 0 0 220 0.09195531
0.58913994 -0.16604453 0.0450943 128 0 0 1.0
-0.046296507 -0.008799224 0.34494472 0 172 255 0.29470998
-0.08002809 0.17949855 0.1880791 0 192 255 0.31722727
0.027664058 0.27039877 0.095765516 0 184 255 0.30888554
-0.6734425 0.05132274 -0.32515153 86 255 170 0.46137372
-0.1375975 0.27307788 0.041149456 0 0 220 0.09335904
0.840281 0.026809854 0.26676503 128 0 0 1.0
-0.7323831 0.17015329 -0.06232361 208 0 0 0.9216963
0.5229636 -0.16604453 -0.15984778 0 248 255 0.37147087
-0.70578176 0.13464968 0.2702669 198 255 58 0.5721468
0.57728434 -0.004094945 0.32865906 178 255 78 0.55208135
-0.836278 0.09750063 -0.062956475 0 68 255 0.19273588
-0.2483063 0.2152131 -0.2358757 0 0 128 0.0
0.5940763 -0.24340147 0.2637273 128 0 0 1.0
-0.44881836 -0.00046653126 0.27016142 255 192 0 0.689977
0.22526492 0.19067913 -0.158793 0 0 236 0.1065396
-0.5052908 -0.071283884 0.2965518 0 180 255 0.30346295
0.840281 0.026809854 0.26676503 128 0 0 1.0
0.17948785 -0.13054092 0.23248497 0 0 128 0.0
0.7023801 -0.16467333 -0.113480024 128 0 0 1.0
0.49298698 -0.06727575 0.2655415 255 240 0 0.642497
0.45754665 -0.16604453 0.124602966 0 88 255 0.21239968
-0.023239203 0.13053606 -0.13404806 0 0 128 0.0
-0.48984897 -0.10940331 -0.27893144 0 0 128 0.002915732
-0.84885097 0.09326045 0.15504365 128 0 0 1.0
0.22015984 0.03282205 0.20090511 0 108 255 0.23261766
-0.4177659 -0.20922688 0.32958722 0 108 255 0.23298803
0.6379547 -0.22772756 -0.22513813 128 0 0 1.0
-0.14253382 0.16770622 -0.26332086 0 0 128 0.0
0.34280863 0.080961816 -0.023339266 0 0 216 0.088023126
0.8369479 -0.14581402 0.21438509 138 255 118 0.51230586
0.68860483 0.074970715 -0.17748354 74 255 182 0.45033607
-0.056359023 0.041808702 -0.32753533 0 52 255 0.17762636
-0.3965439 -0.16604453 0.019505547 238 255 18 0.60903656
-0.8046349 0.09644585 0.2742961 128 0 0 1.0
0.34040374 -0.16604453 0.047878895 0 0 128 0.0
-0.9101964 0.0791898 -0.1556076 128 0 0 1.0
0.0874696 -0.12497175 -0.14930005 0 0 128 0.00015006188
-0.800247 -0.15013857 0.107789904 0 136 255 0.2609351
0.37675118 0.08125715 0.18423973 0 0 248 0.12038364
-0.0938245 0.27219185 0.105638176 0 0 196 0.06945535
-0.4290941 -0.23122941 -0.28734854 0 100 255 0.22724983
-0.36464763 0.053643238 0.049587626 0 0 128 0.0
-0.37059653 -0.14625701 -0.21731173 0 0 128 0.0
-0.14052978 0.15378323 -0.2721598 0 0 128 0.0
-0.39259905 0.24318565 0.21974333 0 0 128 0.0
0.26889026 -0.00038214988 -0.22281763 0 0 192 0.06300635
-0.50879264 0.058917098 -0.32696572 0 140 255 0.26490146
0.21193261 0.18601705 0.24957226 0 0 144 0.017729027
0.55975395 -0.07953219 0.2919952 226 255 30 0.59709597
0.9517914 -0.088919654 -0.0029188925 128 0 0 1.0
0.63500136 0.079885945 -0.2390189 164 0 0 0.9652445
-0.36076602 -0.1371227 -0.28298175 240 0 0 0.8941028
0.2561908 -0.017828068 0.14496003 0 0 180 0.051871087
0.38094914 -0.16604453 0.09635618 0 0 172 0.044369083
-0.1417744 -0.06873134 -0.2700081 0 0 128 0.0
0.7531991 -0.15585543 0.2933031 0 92 255 0.21955702
-0.7193883 -0.15657268 -0.26878455 142 255 114 0.51624155
0.8791809 -0.009368802 -0.12016727 128 0 0 1.0
0.7244038 0.07037191 -0.2441451 182 255 74 0.55546236
-0.92755795 0.053432286 0.15417874 134 255 122 0.5077845
0.0726817 0.07528715 -0.31492025 0 0 128 0.0
0.9516859 -0.093855985 -0.014964381 128 0 0 1.0
0.8744345 -0.13767117 0.2522725 128 0 0 1.0
-0.8692924 -0.14435844 0.19392253 128 0 0 1.0
-0.26419118 -0.06206518 -0.104387894 0 220 255 0.34302938
-0.7777593 -0.15119335 -0.29454207 0 0 244 0.1159639
-0.3829373 0.101719715 -0.22505374 0 0 128 0.0
-0.95576257 -0.11016275 0.009949317 144 0 0 0.98452836
-0.57528543 -0.075334206 0.26583683 255 208 0 0.6717254
-0.0938245 0.27219185 0.105638176 0 0 140 0.012169109
0.70143086 -0.12822044 0.32220381 0 240 255 0.36112
0.69396305 0.07406361 -0.20982285 255 164 0 0.71695095
0.3737767 0.09777487 0.23259045 0 188 255 0.31137225
-0.44004264 -0.004116041 0.29165766 0 0 172 0.04636981
0.6368156 -0.00901018 -0.27057764 128 0 0 1.0
-0.96903163 -0.052487858 0.19702356 154 255 102 0.52648646
0.3179793 0.08395736 0.0990775 0 0 176 0.050830323
0.6722981 -0.16490537 0.12660703 128 0 0 1.0
-0.72025317 -0.1565094 0.2702247 128 0 0 1.0
-0.57528543 -0.075334206 0.26583683 106 255 150 0.48099783
-0.40719706 -0.18754077 -0.29477412 0 0 128 0.0
0.7064727 0.071468875 0.04195108 128 0 0 1.0
0.34204918 -0.14397871 -0.30369747 0 204 255 0.32836077
-0.96903163 -0.052487858 0.19702356 0 240 255 0.36248815
0.9363706 -0.109192364 0.0005829482 128 0 0 1.0
-0.6030892 0.23116125 -0.18712416 0 160 255 0.28440183
0.86992 -0.14186917 0.10165114 128 0 0 1.0
-0.43506414 0.21829304 0.23818074 0 0 128 0.0
-0.8860633 0.035248026 0.3254736 128 0 0 1.0
0.40999755 -0.16604453 0.11850638 0 0 204 0.07519447
-0.9300051 0.034108873 -0.09668807 94 255 162 0.4705441
-0.39475077 -0.20661104 -0.2883822 0 0 212 0.08436643
0.773746 -0.16055973 -0.009774907 128 0 0 1.0
-0.4794278 -0.24306393 0.26045752 216 0 0 0.913988
-0.87724537 -0.10204101 0.32939738 252 0 0 0.8785024
0.56907815 0.003478313 -0.3049843 0 76 255 0.20109996
0.48790297 -0.036497522 0.29304996 0 172 255 0.29430738
0.66385996 -0.17948233 0.30644554 0 212 255 0.33346835
-0.39475077 -0.20661104 -0.2883822 0 120 255 0.2441494
0.40847868 0.09754282 -0.0328533 0 0 128 0.0
-0.52881217 -0.023355067 -0.22347158 0 0 180 0.052196372
-0.5862129 -0.12275672 0.24955116 130 255 126 0.50231683
-0.81589985 0.110411026 0.09357159 0 156 255 0.27879888
-0.5699061 0.23620307 0.17343888 0 0 128 0.0
0.46294707 0.094969176 -0.26133785 255 200 0 0.6813852
-0.1311845 0.27307788 -0.0034040876 0 0 244 0.11511178
-0.05867952 0.26875332 -0.16885553 0 0 128 0.001662674
0.6595565 -0.16604453 0.02958916 0 152 255 0.27490148
0.72786343 0.052925993 -0.2903863 0 108 255 0.23473844
-0.5381153 -0.23160912 -0.24566397 118 255 138 0.49184826
0.90668935 -0.08259103 -0.28777045 218 255 38 0.5906212
-0.25069007 0.26822594 0.17732042 0 0 184 0.057332315
-0.42149976 -0.012153398 0.2635796 128 0 0 1.0
-0.3693097 0.06594187 0.10059637 0 0 228 0.09990168
0.8918593 -0.032362815 -0.2866102 128 0 0 1.0
-0.29642498 -0.16604453 0.043786384 0 0 156 0.027891506
0.061564416 0.2650405 -0.12196038 0 8 255 0.13355762
-0.5464691 0.2387767 0.17128713 0 0 136 0.0105515765
0.7197206 -0.14338803 0.20160125 0 156 255 0.28036523
-0.78296995 0.118701525 -0.19600534 0 84 255 0.20797357
0.12054723 0.24573821 0.18331154 0 0 140 0.015513436
-0.47485012 0.01147348 -0.2058147 0 0 236 0.107321315
0.08126754 -0.031223664 0.260563 0 72 255 0.19989249
-0.22421533 -0.05947044 0.2540023 0 0 128 0.0
0.26201317 0.1525175 -0.26646405 0 0 128 0.0
0.6183993 -0.17064333 0.30191 128 0 0 1.0
0.29483765 -0.16604453 0.145614 0 0 128 0.0
-0.056359023 0.041808702 -0.32753533 0 0 148 0.020456733
0.68963856 -0.0933286 0.22581881 128 0 0 1.0
0.6130832 -0.22629307 0.22567114 128 0 0 1.0
0.34164837 0.12095874 -0.04321116 0 184 255 0.3090793
0.12999798 -0.16604453 0.061042443 0 0 128 0.0
0.70404667 -0.10748363 0.2868479 128 0 0 1.0
0.58757883 -0.16467333 0.19461869 128 0 0 1.0
0.08339818 0.25828996 0.1769618 0 0 176 0.04976637
0.81591576 0.027041905 0.29771206 128 0 0 1.0
0.68997604 -0.17633909 0.23944645 128 0 0 1.0
-0.2483063 0.2152131 -0.2358757 0 0 128 0.0
0.6564765 -0.16593905 -0.058610816 128 0 0 1.0
-0.08217982 0.2729091 0.070155665 0 0 128 0.0
-0.6082154 -0.115816325 -0.26775086 0 0 128 0.0
0.9361808 -0.10497328 -0.11063214 128 0 0 1.0
-0.46385938 -0.22580788 -0.31819 0 0 152 0.025307555
-0.1630386 -0.07214879 0.34321487 0 56 255 0.183082
-0.661418 -0.16129807 -0.21543422 0 4 255 0.1301709
0.050236166 0.26839468 -0.039245214 0 0 128 0.0
0.10337555 0.004195557 0.260563 0 0 184 0.05560218
-0.7879274 0.09693105 -0.28091443 152 0 0 0.9803317
-0.36585006 0.26257235 -0.118310876 0 0 128 0.0
0.66968226 -0.16828065 -0.26363727 255 220 0 0.66126287
-0.4550204 0.0011367206 0.25471956 0 4 255 0.13092333
0.6971696 -0.16503194 -0.09303855 0 72 255 0.19701408
-0.5058604 0.2416246 -0.18130182 0 0 128 0.0
0.93873334 -0.051285412 0.16976826 178 255 78 0.5512504
-0.4793223 -0.094657615 -0.28150508 255 184 0 0.69615877
-0.42052937 -0.0126596885 -0.28053468 0 0 252 0.12356307
-0.92937213 0.009089696 0.18892291 128 0 0 1.0
-0.5743151 -0.2049023 0.29623535 0 220 255 0.34404975
0.066753894 0.26077923 -0.16400358 0 0 128 0.0
-0.24180892 -0.06060959 -0.19423333 0 0 152 0.025447328
0.035511557 -0.04957669 -0.07590906 0 120 255 0.24555907
-0.9573869 -0.0444505 -0.18220893 150 255 106 0.5227074
0.0023495494 -0.16604453 0.11190351 0 0 128 0.0
0.115210086 -0.16604453 0.04446144 0 0 128 0.0
0.27315152 -0.0028925051 0.17354435 176 0 0 0.95633554
-0.7630347 0.10368159 -0.27566168 0 128 255 0.25395906
-0.41848314 -0.20285605 0.23655638 128 0 0 1.0
0.06249261 -0.03217296 0.34420636 0 0 180 0.052924786
-0.9310809 -0.03738353 -0.28924713 82 255 174 0.45834917
0.32116473 0.09153062 0.18381782 0 52 255 0.17775361
-0.64532226 0.22297622 0.095849894 0 0 128 0.0
-0.58530575 -0.12638512 -0.26007214 0 0 128 0.0
0.7039834 -0.13357867 0.28001297 128 0 0 1.0
-0.4698716 -0.023587119 -0.30979404 0 12 255 0.13960113
-0.9305957 0.010692949 0.13861032 128 0 0 1.0
-0.65576446 -0.015043471 0.3455354 128 0 0 1.0
-0.1395383 -0.09488966 -0.17579591 0 20 255 0.14630187
0.003404321 -0.16604453 0.098845445 0 0 128 0.0
-0.9106816 0.06300961 -0.26093706 26 255 230 0.40196785
-0.37308577 -0.07366767 -0.070614114 0 0 252 0.12168284
0.061564416 -0.16347088 -0.29610315 0 0 128 0.0
-0.5137923 -0.08681012 -0.28089333 0 8 255 0.13568059
0.20800886 -0.104509175 0.33102173 0 0 128 0.0
0.4043229 0.08028676 0.1664141 0 156 255 0.28074408
0.7487901 -0.15492724 -0.28500694 0 132 255 0.25783327
0.84241164 0.050795354 -0.00093592255 128 0 0 1.0
0.14598832 0.24535848 -0.052261095 0 0 132 0.006822297
-0.36464763 0.053643238 0.049587626 0 0 128 0.0
-0.028175531 -0.07003925 0.20959644 128 0 0 1.0
-0.9325365 -0.012617497 -0.027115347 0 200 255 0.32305446
0.536992 -0.16545387 -0.16501616 255 204 0 0.67590964
0.6432286 0.07752326 0.13565697 128 0 0 1.0
-0.08509099 0.13422777 -0.13392149 0 0 128 0.0
0.695039 0.07444333 -0.16438329 90 255 166 0.46495822
-0.5783865 0.0616595 0.33376414 22 255 234 0.3967292
-0.024040828 -0.16604453 0.09960488 42 255 214 0.41626114
-0.36167315 -0.048057813 0.20421709 0 80 255 0.20771526
0.19788305 0.16859221 -0.25867987 0 0 128 0.0
-0.60239303 0.22799695 0.21227555 10 255 246 0.38549376
-0.45550558 -0.24015278 -0.30319118 0 0 204 0.07778004
0.60648036 0.0833034 -0.17874928 0 180 255 0.30311668
0.6998065 0.02733724 0.3201154 0 252 255 0.37365177
0.27918482 0.04117584 -0.21902044 0 0 128 0.0
0.49039224 -0.09761097 -0.29745322 0 192 255 0.31695655
-0.96472806 -0.07461696 0.23396164 255 180 0 0.7006407
0.74463433 0.043770578 0.3034711 128 0 0 1.0
-0.6080888 0.1387633 0.26904336 0 132 255 0.25625297
-0.8943538 0.08051881 0.2626514 128 0 0 1.0
0.53545207 -0.0045168526 0.2918686 128 0 0 1.0
0.5793938 0.085645 0.2355438 0 240 255 0.3613124
0.7842093 0.06085787 -0.20488653 128 0 0 1.0
-0.31066442 -0.06508183 0.11515221 0 0 212 0.085033335
0.42343536 0.096509136 -0.021820396 0 0 204 0.076503165
0.22047625 -0.03023218 -0.0067582605 0 0 128 0.0
-0.42152086 0.11309015 0.17721495 0 0 128 0.0
0.40516672 -0.015697429 0.33939663 0 0 244 0.11747525
0.5703439 -0.14408419 -0.28298175 0 144 255 0.26674074
-0.8502643 0.09307059 0.14154258 10 255 246 0.38563251
0.69280285 0.07279789 0.045199774 128 0 0 1.0
0.4952231 -0.19513512 -0.21651009 238 255 18 0.60947716
0.061817557 0.2659476 0.09614523 0 0 144 0.018227363
0.28401566 0.058178753 0.22438432 0 0 168 0.04251084
-0.769722 -0.15252236 0.1544108 255 164 0 0.7174597
0.45809513 0.09383002 -0.10651853 0 0 132 0.004513215
0.8966269 0.024046354 -0.059454635 128 0 0 1.0
0.5510416 -0.08989005 -0.27939552 86 255 170 0.45961174
-0.54935914 0.24436699 0.029230537 0 0 144 0.016044352
-0.042520426 -0.0032722238 -0.20028771 0 0 152 0.026736533
0.5996033 -0.16361855 0.29351404 255 68 0 0.80895776
0.60375905 -0.05666475 -0.2865047 106 255 150 0.48216584
-0.4763268 0.2530372 0.022058092 0 0 244 0.11693098
0.7097847 0.05950777 0.29745892 0 216 255 0.33749208
-0.18596931 -0.12197618 0.220777 0 0 128 0.0
-0.9513536 -0.124655314 0.02248 122 255 134 0.4963206
0.48482305 -0.16604453 0.10386616 130 255 126 0.5040556
0.61148 -0.14018153 0.28695336 0 68 255 0.19403747
-0.43962076 0.10066494 -0.20117371 0 0 128 0.0
-0.54935914 0.24436699 0.029230537 0 0 152 0.026532607
0.01817112 0.0043221307 -0.06544573 0 0 128 0.0
-0.029483449 0.13935395 -0.073609665 0 0 128 0.0
-0.8656007 0.09020161 0.20413272 212 0 0 0.9193501
-0.37951988 0.1322026 0.17200439 0 0 148 0.02095088
0.7064727 0.071468875 0.04195108 128 0 0 1.0
0.034351308 0.029362401 -0.02612386 0 0 204 0.07499564
-0.41808233 0.0851809 -0.1698892 0 0 128 0.0
0.5344606 -0.16509524 -0.1902463 42 255 214 0.41952914
-0.16179396 0.27233952 0.09787506 0 0 128 0.0
0.87373835 -0.008377316 0.20548283 0 240 255 0.36266297
-0.43677288 -0.1344014 -0.27526084 0 0 164 0.038476273
0.5757654 0.0042799395 -0.2758515 128 0 0 1.0
-0.5810234 -0.090016626 -0.24482015 0 0 248 0.11802165
-0.22077678 -0.05847896 -0.058863964 0 0 128 0.0
0.20364211 0.21090965 0.024188729 0 0 128 0.0
0.7645484 0.0047440385 -0.27009246 148 0 0 0.98079824
-0.66105944 0.20276682 0.16362949 0 180 255 0.30547056
0.7622068 0.06438081 0.033259764 128 0 0 1.0
-0.15027586 -0.058563337 0.043406665 0 0 128 0.0
0.60415983 -0.020886907 -0.24496782 14 255 242 0.39058718
-0.14744908 -0.11946583 -0.14307691 0 0 132 0.006543759
-0.2668492 0.2655046 -0.18231441 0 0 128 0.0
-0.3794355 0.26103237 0.12605855 0 0 128 0.0
-0.4420889 0.061870452 -0.32702902 0 104 255 0.22973332
0.47469723 -0.095775664 0.3292286 0 84 255 0.20911369
-0.9240139 -0.14001277 -0.12816244 128 0 0 1.0
-0.5617421 0.21542408 -0.21842977 0 148 255 0.27299523
0.808237 0.05604812 -0.10812178 0 200 255 0.3222564
-0.28748053 0.27231842 -0.029098317 0 0 128 0.0
-0.7861342 0.13678032 -0.023993224 255 80 0 0.79773235
0.39860603 -0.16604453 0.18622269 0 8 255 0.13397035
0.1686659 -0.025464611 -0.02612386 0 0 248 0.11966257
-0.87724537 -0.10204101 0.32939738 128 0 0 1.0
0.8420108 0.026999716 -0.26222387 128 0 0 1.0
-0.81589985 0.110411026 0.09357159 192 0 0 0.9402734
-0.9280432 0.027864628 -0.18803127 128 0 0 1.0
0.0726817 0.07528715 -0.31492025 0 0 156 0.030599395
-0.54482365 -0.03848049 -0.27391073 0 0 152 0.02709813
0.37873414 0.09572861 -0.099831276 0 0 128 0.0
0.66831106 0.010460899 -0.31850648 255 60 0 0.8162509
-0.62912095 -0.09524829 -0.20811412 128 0 0 1.0
-0.08943664 0.27307788 0.041655745 0 0 128 0.0
0.2170588 0.00132658 0.08591395 0 248 255 0.3700778
0.7064727 0.071468875 0.04195108 128 0 0 1.0
-0.17649747 0.16502708 0.27465475 0 0 152 0.024922417
-0.6409766 -0.1629857 0.19790955 0 12 255 0.13768834
0.88112175 0.036534846 0.08580848 128 0 0 1.0
-0.73883826 -0.15503271 0.1654648 78 255 178 0.45192012
0.22745885 -0.16604453 0.14171134 0 0 160 0.031453356
0.56057674 -0.06923762 -0.26521942 38 255 218 0.4152948
0.50914603 -0.047066335 -0.26338413 128 0 0 1.0
0.9362019 -0.04341682 0.033998106 255 212 0 0.66771066
-0.7386906 -0.1551382 0.117029704 0 128 255 0.25380024
0.038528208 0.26706567 -0.13972273 0 0 128 0.0
0.2582371 0.028307632 -0.08120402 0 0 128 0.0
0.58319104 -0.16604453 0.0067217173 138 255 118 0.51262504
-0.8142333 0.0953278 -0.25804698 128 0 0 1.0
-0.35051367 0.016557477 0.07764454 0 0 132 0.0047357436
0.04515217 0.0057355245 -0.02612386 0 0 216 0.08819413
0.27395317 -0.14096206 -0.30625 0 132 255 0.25561142
-0.26421225 0.06151183 -0.32551014 0 0 128 0.0
-0.5898202 -0.06442787 -0.31641802 62 255 194 0.4379335
0.67166525 -0.16507414 -0.106856056 128 0 0 1.0
0.3720469 0.09604505 -0.1675687 0 0 128 0.0
-0.5417015 0.2437974 0.08918374 0 0 128 0.0
-0.6445628 0.16019624 -0.24743599 192 0 0 0.94003046
0.81498754 -0.0076600723 -0.24998854 0 196 255 0.3189088
0.7713622 0.062376745 0.24328583 128 0 0 1.0
-0.5855589 -0.11767272 0.27813548 22 255 234 0.39709204
-0.47288823 0.070435196 0.33260387 0 0 128 0.0
0.33740819 -0.060841642 0.34057796 0 0 232 0.10558438
0.4318524 0.09566532 0.12399119 0 0 216 0.08777898
-0.5445283 0.24493657 0.014948933 0 0 188 0.061876237
-0.5898202 -0.06442787 -0.31641802 0 0 192 0.0634937
-0.87821573 -0.14378886 -0.10580129 128 0 0 1.0
-0.899501 -0.13412715 -0.30506867 128 0 0 1.0
0.30555412 0.1368647 -0.22224805 0 0 128 0.0
0.16345532 0.23523267 0.006806099 0 0 128 0.0
0.3688615 -0.16604453 0.1843874 255 212 0 0.6675712
-0.59730905 0.09646695 -0.29869786 255 132 0 0.7465592
-0.7039043 0.18795782 0.07498652 26 255 230 0.4033499
0.6288626 -0.20929015 -0.24382867 128 0 0 1.0
-0.16158302 0.17382388 -0.25965023 0 0 128 0.0
-0.087306015 0.14663188 0.2852868 0 0 136 0.010568102
0.9012046 -0.016667819 0.22181068 128 0 0 1.0
0.3674692 0.08085633 -0.15373011 0 0 128 0.0
0.85219985 -0.12834701 -0.28774932 255 244 0 0.6377161
0.3798733 0.09555984 0.022585478 0 0 208 0.078818254
-0.8761273 -0.14395761 0.117957905 128 0 0 1.0
-0.8088751 -0.14925258 0.2577151 255 124 0 0.7550176
0.593359 -0.018165594 -0.31616488 0 176 255 0.30088198
-0.08943664 0.27307788 0.041655745 0 0 128 0.0
-0.8171023 -0.047192905 -0.33285135 128 0 0 1.0
-0.3969447 -0.017110823 0.05359576 0 0 172 0.04680363
0.29831836 0.08205877 -0.19438098 0 0 128 0.0
-0.3829373 0.101719715 -0.22505374 0 0 128 0.0
0.6679524 -0.07744374 0.31984115 0 152 255 0.27786878
0.08339818 0.25828996 0.1769618 0 0 128 0.0
0.23418829 0.047230225 0.13861032 0 0 224 0.0973959
0.9361808 -0.10497328 -0.11063214 128 0 0 1.0
0.59051114 -0.22110358 -0.24906033 255 120 0 0.7584568
0.12400688 -0.09149329 -0.3266704 0 48 255 0.1744962
-0.029483449 0.13935395 -0.073609665 0 0 160 0.035134405
-0.95637435 -0.062592566 -0.263574 128 0 0 1.0
-0.9281065 0.057588078 0.059797812 128 0 0 1.0
-0.70850307 -0.071136214 0.34207574 128 0 0 1.0
-0.36844477 0.063642465 -0.271316 0 0 128 0.0
-0.36076602 -0.1371227 -0.28298175 0 20 255 0.14569403
-0.59349084 0.11247838 -0.27990183 0 0 255 0.12624745
0.5036191 -0.20840415 0.2272322 255 252 0 0.62929004
-0.86541086 -0.0730559 0.3367808 128 0 0 1.0
0.27315152 -0.0028925051 0.17354435 0 0 144 0.016350437
0.6830357 -0.16604453 0.043828573 224 0 0 0.9082713
0.3517953 0.09733186 -0.28616717 0 20 255 0.14894469
-0.39856905 -0.011815871 0.24714628 128 0 0 1.0
-0.18596931 -0.12197618 0.220777 0 0 128 0.0
0.76775485 -0.14056127 -0.29125118 128 0 0 1.0
-0.667599 0.1562725 -0.24937676 128 0 0 1.0
0.7197206 -0.14338803 0.20160125 128 0 0 1.0
-0.68926406 -0.15901975 0.23687282 0 76 255 0.20324118
0.09487409 0.026282469 -0.02612386 0 0 128 0.0
0.47047818 -0.028502356 -0.20197535 0 176 255 0.29821783
-0.36040744 -0.10444589 0.26147008 255 84 0 0.7933752
-0.388169 -0.045441978 0.20786661 255 76 0 0.8019827
0.808237 0.05604812 -0.10812178 0 184 255 0.30731508
-0.18033683 -0.056622557 0.1405722 0 0 156 0.027801733
-0.7539215 0.1576648 0.004527793 134 255 122 0.50840425
-0.5218296 -0.075439684 0.2807724 0 160 255 0.28311342
0.9089255 0.0024868285 0.056570213 128 0 0 1.0
-0.32188717 0.036555942 0.29484308 198 255 58 0.5702321
-0.42616186 0.10986255 0.00083609327 0 0 128 0.0
0.63818675 0.053579953 0.31045368 255 168 0 0.7122663
0.31907627 0.13401683 -0.15107207 0 0 128 0.0
-0.3936538 -0.027806204 -0.07185874 0 0 128 0.0
-0.73565286 0.08307136 0.31652918 0 208 255 0.33291605
0.011504966 -0.09670387 -0.0633151 0 0 128 0.0015396902
0.5229636 -0.16604453 -0.15984778 0 92 255 0.21912538
0.023044161 0.07682712 -0.3146882 0 0 128 0.0
-0.67835766 0.19188157 0.16343965 54 255 202 0.42898005
0.2760627 0.0021282064 -0.33139578 122 255 134 0.49494448
0.4731362 -0.056601465 -0.24929239 0 0 220 0.094026975
0.37234223 0.08068757 -0.03392917 0 0 204 0.07729408
-0.5903475 0.23951504 0.0027557772 0 0 184 0.05573997
-0.35142076 0.01894126 0.13624762 0 0 164 0.03793306
0.77406245 -0.15606639 -0.2289564 216 0 0 0.9167326
-0.8595885 0.09252211 -0.058399864 170 255 86 0.5413545
0.122867726 -0.061221365 0.06688587 0 0 128 0.0
-0.46919653 0.054676916 0.33832073 0 72 255 0.19801208
0.08126754 -0.031223664 0.260563 0 0 236 0.10762706
0.7487901 -0.15492724 -0.28500694 128 0 0 1.0
0.593359 -0.018165594 -0.31616488 128 0 0 1.0
-0.67586845 0.19802035 0.14481238 0 216 255 0.3379294
0.74402255 0.06724979 0.078868076 128 0 0 1.0
-0.041423462 0.1363584 0.29064506 0 40 255 0.16489966
0.5082811 -0.16604453 0.092242576 0 236 255 0.359627
0.66968226 -0.16828065 -0.26363727 216 0 0 0.9160408
-0.26665935 -0.046370182 0.34846765 0 0 164 0.037079632
0.46294707 0.094969176 -0.26133785 0 100 255 0.22670513
0.084832676 -0.12476079 -0.05434954 0 0 128 0.0
0.8008747 0.05729274 0.1193291 128 0 0 1.0
0.104915515 -0.124908455 -0.15309724 0 0 128 0.0
0.2042117 -0.083498135 0.032141708 0 0 128 0.0
-0.022458673 0.14819294 0.19660164 0 0 128 0.0
0.50214237 -0.16604453 -0.18545762 122 255 134 0.49667534
-0.7818519 0.13969149 -0.05232438 128 0 0 1.0
-0.3526654 0.022232147 -0.08875618 0 0 172 0.046100356
-0.7386906 -0.1551382 0.117029704 0 24 255 0.15241948
-0.36101916 -0.08807584 0.2655415 0 8 255 0.13622436
-0.03916625 -0.01662563 -0.17805313 0 0 208 0.07998998
0.6852507 -0.18650709 -0.25958696 0 88 255 0.21337128
0.642216 -0.012069016 -0.25076908 128 0 0 1.0
-0.42152086 0.11309015 0.17721495 0 0 128 0.0
0.30068105 0.14464891 -0.19311526 0 0 128 0.0
0.46123835 0.095876284 0.15960026 255 228 0 0.65265816
-0.40268263 0.0015375338 0.050874446 0 0 128 0.0
-0.046296507 -0.008799224 0.34494472 0 0 232 0.10284652
0.018403167 -0.02976808 0.05551544 0 0 180 0.054603387
-0.31319585 -0.06522949 0.023344912 0 0 192 0.06466681
0.6288626 -0.20929015 -0.24382867 128 0 0 1.0
-0.3655336 -0.041961238 -0.2925169 0 0 168 0.042362656
-0.15525438 -0.050336115 0.34842545 0 48 255 0.17439227
0.0717746 -0.12315753 -0.08654116 0 12 255 0.14044523
0.6147497 -0.091408916 0.28233346 128 0 0 1.0
0.87042636 -0.0076600723 -0.16934071 38 255 218 0.4127548
-0.96951675 -0.05080022 0.035200544 128 0 0 1.0
0.60103774 0.0731987 -0.2902808 128 0 0 1.0
-0.699432 0.16749525 -0.22115108 0 0 252 0.12186135
0.66831106 0.010460899 -0.31850648 138 255 118 0.5108521
-0.67032033 0.08786002 0.314947 128 0 0 1.0
0.5703439 -0.14408419 -0.28298175 70 255 186 0.44534093
-0.2031199 -0.12307316 0.058721945 0 0 220 0.0912833
-0.39629072 -0.019262558 0.0004985666 0 0 156 0.0284967
-0.9165883 -0.018692981 -0.27842516 255 68 0 0.8091601
0.80861676 0.056111407 -0.08755374 98 255 158 0.47229707
0.60941267 -0.21739079 0.29226944 255 108 0 0.7719563
0.9265613 -0.028818784 0.01902035 128 0 0 1.0
0.85821205 0.00132658 -0.23910329 0 172 255 0.29689303
0.7450351 -0.16144572 0.25452968 255 120 0 0.7598928
-0.28184807 -0.06320433 0.12051045 142 255 114 0.51400864
-0.42152086 0.11309015 0.17721495 0 0 128 0.0
-0.34327793 -0.077401556 -0.26964945 0 0 128 0.0
-0.32241455 -0.003103459 0.29484308 110 255 146 0.48263487
0.051987085 0.26774073 0.07707497 0 88 255 0.21205236
-0.13415895 0.16888756 0.27168027 0 0 176 0.047341213
-0.71632946 0.15551306 0.24377102 210 255 46 0.58119726
-0.28085655 -0.12703909 0.23735802 0 0 128 0.0
-0.37308577 -0.07366767 -0.070614114 0 0 128 0.0
0.48182747 -0.19517732 0.31142408 42 255 214 0.41604963
-0.0250956 0.13473406 -0.20490761 0 0 128 0.0
0.3996819 0.09988441 0.21508124 255 96 0 0.7808088
0.6312675 -0.0064787273 -0.24825871 180 0 0 0.9513833
0.4559223 -0.11771492 -0.24144489 0 16 255 0.14274801
0.4918056 0.09345031 0.22558676 128 0 0 1.0
-0.7577609 0.13901643 -0.18045801 255 12 0 0.8630385
-0.79809535 -0.107399255 -0.3215231 255 252 0 0.62764555
-0.85701483 -0.08155735 -0.32635397 255 100 0 0.7777701
-0.31089646 -0.120499514 0.12880094 0 0 128 0.0
-0.38156614 -0.059955634 0.09435212 255 224 0 0.65560913
-0.5205217 -0.23850733 0.3002435 255 136 0 0.7441897
-0.36844477 0.063642465 -0.271316 0 0 128 0.0
0.5975992 -0.1712762 0.27784014 0 132 255 0.25881183
-0.40719706 -0.18754077 -0.29477412 0 0 164 0.03918511
-0.49242258 0.24272154 0.19472416 0 0 128 0.0
-0.89401627 -0.14231217 -0.2109831 128 0 0 1.0
0.121644184 -0.05444973 -0.15508021 0 0 255 0.12632324
0.8744345 -0.13767117 0.2522725 128 0 0 1.0
-0.42852455 -0.23110282 0.25566885 208 0 0 0.9244742
-0.72025317 -0.1565094 0.2702247 255 160 0 0.72074664
0.4167481 0.080307856 0.029483682 154 255 102 0.5256428
0.60375905 -0.05666475 -0.2865047 255 44 0 0.83222145
0.70062923 -0.15070815 -0.2496932 255 108 0 0.77234125
0.85300153 0.04518397 0.2157774 128 0 0 1.0
0.48419017 -0.052023757 0.22746426 180 0 0 0.94945776
0.39674965 0.09701543 -0.087005265 0 0 128 0.0
-0.22149402 0.2725083 -0.08067663 0 0 128 0.0
0.76340926 -0.15804937 0.25111222 220 0 0 0.91132104
-0.5663621 -0.21272871 -0.28538665 42 255 214 0.41594005
0.5440801 0.016072283 -0.3045835 102 255 154 0.47487906
0.9517914 -0.088919654 -0.0029188925 128 0 0 1.0
-0.20117912 -0.057972666 -0.07909448 0 0 128 0.0
-0.5220406 0.24512644 -0.10613881 0 0 128 0.0
-0.42917854 0.09062351 -0.13069388 0 0 128 0.0026139838
-0.5058604 0.2416246 -0.18130182 0 0 128 0.0
-0.59562147 0.23816493 0.075366236 0 128 255 0.25444573
-0.39437103 -0.1430927 0.20333108 6 255 250 0.3836771
0.47425422 0.094969176 0.16004327 0 0 196 0.06744391
-0.6022243 -0.13777666 -0.31620705 255 192 0 0.68929577
0.8744345 -0.13767117 0.2522725 128 0 0 1.0
0.66385996 -0.17948233 0.30644554 255 180 0 0.69868034
-0.11236738 -0.13362086 -0.31439283 0 88 255 0.21328858
-0.5862129 -0.12275672 0.24955116 255 120 0 0.7599551
0.4185201 -0.05141199 0.34123188 0 76 255 0.20134296
0.47935933 0.09243773 -0.047071617 255 96 0 0.7823534
-0.6555746 0.20574127 -0.15655689 130 255 126 0.5028473
0.45864362 0.09589738 -0.17801094 0 116 255 0.23968026
0.857959 0.019299883 -0.20703825 128 0 0 1.0
0.57646155 -0.16604453 0.058489896 255 136 0 0.74421686
-0.95297796 -0.09121906 0.2845696 128 0 0 1.0
0.82517666 -0.1477126 0.2171275 46 255 210 0.4234652
0.22070831 -0.0896369 0.0851967 0 0 128 0.0
0.33067876 0.13024072 -0.053083815 0 0 128 0.0
-0.92179894 0.052862708 0.23590243 210 255 46 0.5828536
0.40911156 -0.059554826 0.3398607 0 0 144 0.016836507
-0.5458573 0.24004243 -0.1463045 0 0 212 0.08319608
0.2521616 0.066405974 0.0538489 0 0 140 0.015604855
-0.36230603 -0.09324422 0.29437897 0 164 255 0.28908324
0.22967386 -0.10223087 -0.23231056 0 0 128 0.0
-0.4177659 -0.20922688 0.32958722 78 255 178 0.4530286
-0.3341014 -0.10942441 -0.136242 0 0 192 0.06632956
-0.14055087 -0.081409685 0.16852362 0 172 255 0.29527584
0.91898805 -0.12090032 -0.03264235 128 0 0 1.0
-0.5299092 -0.1791237 -0.29677817 0 80 255 0.20498785
-0.82670075 -0.12324192 -0.31352794 218 255 38 0.5903243
-0.52625966 0.018730307 -0.33696496 0 0 180 0.05443837
-0.03781614 0.17445676 0.12728208 0 0 128 0.0
0.8003051 0.057588078 0.089268126 255 0 0 0.8780976
-0.42341945 -0.20009255 0.32412353 0 88 255 0.21476959
0.54646385 -0.00021338616 -0.2640381 255 208 0 0.67327565
0.5928527 0.020565609 0.22020744 242 255 14 0.61471015
0.67356384 -0.08885637 -0.31302166 252 0 0 0.8819346
0.16345532 0.23523267 0.006806099 0 0 128 0.0
0.627407 -0.16501085 0.14806108 128 0 0 1.0
0.44938272 0.06699665 -0.3095831 128 0 0 1.0
-0.6445628 0.16019624 -0.24743599 128 0 0 1.0
-0.58530575 -0.12638512 -0.26007214 26 255 230 0.4034708
0.1797621 -0.16604453 0.041297123 0 0 128 0.0
0.08126754 -0.031223664 0.260563 0 0 128 0.0
0.58319104 -0.16604453 0.0067217173 255 132 0 0.74676013
0.627407 -0.16501085 0.14806108 168 0 0 0.9626525
-0.91850805 0.06516134 -0.21294495 255 164 0 0.7176408
-0.36142 -0.09708358 -0.28253877 0 104 255 0.23135808
0.69396305 0.07406361 -0.20982285 0 116 255 0.2409512
0.5416541 -0.16602345 0.13386385 0 176 255 0.298091
-0.39475077 -0.20661104 -0.2883822 0 0 220 0.093077816
0.5701329 -0.16511633 0.17586485 0 200 255 0.32241198
-0.8502643 0.09307059 0.14154258 128 0 0 1.0
-0.8676892 0.08986408 -0.18474038 128 0 0 1.0
0.50412536 0.0907501 0.02239562 0 0 164 0.03853916
0.5094836 0.07655287 -0.29779077 128 0 0 1.0
0.027664058 0.27039877 0.095765516 0 0 128 0.0
0.6547889 -0.18922842 -0.28728524 194 255 62 0.5674222
-0.0025023988 -0.08423648 -0.15151508 0 0 128 0.0
-0.030559314 0.12557864 0.18938701 0 0 232 0.10374406
-0.7777593 -0.15119335 -0.29454207 255 184 0 0.69498616
-0.40139583 0.25153944 -0.19414894 0 0 128 0.0
0.26433364 -0.017258491 -0.22581317 0 0 128 0.0
-0.45295307 0.24997838 0.16012765 0 0 128 0.0
0.4222751 0.09655134 -0.04093285 0 0 128 0.0
-0.18033683 -0.056622557 0.1405722 0 0 236 0.109068625
0.084832676 -0.12476079 -0.05434954 0 0 128 0.0
0.44938272 0.06699665 -0.3095831 0 236 255 0.35963178
-0.91426784 0.051491503 0.27136385 128 0 0 1.0
-0.23754764 0.19137529 -0.25005183 0 0 132 0.0057447585
-0.70584506 -0.15766963 0.24214667 106 255 150 0.4784982
0.06274575 0.2664539 -0.06415892 0 0 128 0.0
-0.3804059 0.09507465 -0.07029768 0 0 128 0.0
-0.36585006 0.26257235 -0.118310876 0 0 128 0.0
-0.27573037 0.085244186 0.32136002 26 255 230 0.40138808
0.0726817 0.07528715 -0.31492025 0 0 160 0.03170431
-0.84507483 0.095222324 -0.084241755 226 255 30 0.59884787
-0.37489998 -0.03369183 -0.25969246 0 136 255 0.26232925
0.65770006 -0.051095553 0.3097997 255 156 0 0.7254035
0.034520075 0.01687391 0.260563 0 0 128 0.0
0.88112175 0.036534846 0.08580848 128 0 0 1.0
0.23370309 0.19015175 -0.10510514 0 0 128 0.0
0.7928796 -0.05371139 0.3238915 255 196 0 0.68402123
0.6125769 -0.16498975 -0.1486461 0 36 255 0.1620631
-0.89247626 0.08484337 0.0654092 128 0 0 1.0
-0.066906735 0.18534198 0.16717352 0 0 240 0.11217608
-0.3193768 0.023392396 0.29484308 0 0 168 0.040045813
-0.030559314 0.12557864 0.18938701 0 0 144 0.016373789
0.866819 -0.13916896 -0.24804775 128 0 0 1.0
-0.5338751 0.2462023 0.035833407 0 0 136 0.009127923
-0.30119255 -0.06444896 -0.25720316 0 0 240 0.11079412
0.04515217 0.0057355245 -0.02612386 0 0 128 0.0
-0.08217982 0.2729091 0.070155665 0 0 128 0.0
-0.10017422 0.26630625 -0.18703979 0 0 128 0.001404247
0.23089741 0.11258386 0.16006435 46 255 210 0.42225736
-0.3789503 0.13095798 -0.17031111 0 0 128 0.0
-0.47229758 -0.08638821 0.26948637 128 0 0 1.0
-0.56591904 -0.16773216 0.31281635 0 40 255 0.16726215
0.81583136 -0.10524752 -0.3012715 78 255 178 0.45301774
-0.475272 0.047842 -0.3308262 0 44 255 0.16998735
-0.6723033 -0.15958932 0.30967316 10 255 246 0.38716954
-0.69962186 0.18694524 -0.09831241 0 0 255 0.12893507
0.13248724 -0.14018153 0.3176683 0 0 180 0.05130172
-0.9637788 -0.1090236 -0.13459656 128 0 0 1.0
0.6260147 -0.004390281 -0.29044956 248 0 0 0.8835093
-0.1630386 -0.07214879 0.34321487 128 0 0 1.0
-0.90791816 0.07222831 -0.24243636 128 0 0 1.0
0.8401966 -0.013355838 0.25929725 128 0 0 1.0
0.07320909 0.03406668 -0.02612386 0 0 128 0.0
0.8308513 0.052588463 -0.043443203 255 176 0 0.7035748
-0.9314817 0.014384649 0.05140183 0 224 255 0.34586844
0.4952231 -0.19513512 -0.21651009 172 0 0 0.9570533
0.8764596 -0.0065842043 -0.2851546 128 0 0 1.0
0.60375905 -0.05666475 -0.2865047 255 220 0 0.6594675
0.6380813 0.07819831 -0.046312183 130 255 126 0.5032025
-0.9716263 -0.07229646 -0.101518914 128 0 0 1.0
0.593359 -0.16501085 -0.16005874 0 200 255 0.32409805
-0.7432683 0.07347293 -0.3145616 128 0 0 1.0
0.37816456 0.08163686 0.2180768 0 4 255 0.13056752
0.68788767 -0.18203487 0.29530716 128 0 0 1.0
-0.06827794 0.05849519 0.091314375 0 0 148 0.022364512
0.39786768 0.08083524 -0.16788514 0 0 128 0.0
0.4831776 -0.16604453 0.021847138 0 116 255 0.24213208
-0.034799498 -0.16604453 0.06882665 0 0 128 0.0
0.42902562 -0.12526707 0.30785894 0 0 212 0.08291852
-0.22514354 -0.12450765 -0.08278618 0 0 140 0.012291196
0.51334405 -0.15857674 -0.19237691 0 0 248 0.11961964
0.49496993 0.09127747 -0.06939058 0 0 176 0.04991141
0.4190686 0.09828116 0.23575474 0 0 212 0.08558719
-0.5205217 -0.23850733 0.3002435 186 255 70 0.5594338
-0.6409766 -0.1629857 0.19790955 0 244 255 0.36646712
0.29418367 0.08129934 0.11386539 255 56 0 0.82150996
0.57867664 -0.24428746 -0.28032374 222 255 34 0.5951469
-0.9314817 0.014384649 0.05140183 14 255 242 0.39183807
0.18503594 0.059782006 -0.31937137 0 0 128 0.0
-0.20012435 0.19196595 0.2582636 0 0 128 0.0
0.2552837 0.05391748 -0.3195823 0 36 255 0.16122417
-0.60507214 -0.092189446 0.263664 188 0 0 0.9430561
0.15691574 0.23921971 -0.0342456 0 0 128 0.0
0.44269547 0.04659737 -0.3169454 255 208 0 0.67419535
0.09291222 0.2628888 -0.014099469 0 0 160 0.034770567
-0.59083277 0.06828346 0.33150694 0 136 255 0.2591765
-0.009590462 0.26972368 0.16563356 0 0 128 0.0
-0.14628883 -0.11940255 -0.17284256 0 0 128 0.0
-0.90962684 0.010060086 0.31287965 128 0 0 1.0
0.2466135 0.1054325 0.13565697 106 255 150 0.4823116
0.16495311 0.22681561 -0.15535444 0 0 136 0.008058759
-0.54935914 0.24436699 0.029230537 0 0 128 0.0
0.90240705 -0.056685843 -0.29498506 22 255 234 0.39684337
-0.50950986 0.23856574 0.21425852 0 0 128 0.0
-0.5679653 -0.05529355 0.23480545 0 36 255 0.16297375
0.52268934 0.0893156 0.10388726 0 56 255 0.18163487
-0.7233753 0.16234797 -0.16056502 128 0 0 1.0
0.2419092 0.18772577 0.051633883 0 0 184 0.05668579
0.89618385 0.0020227283 -0.19473961 128 0 0 1.0
-0.35785487 0.035838697 -0.25393337 0 0 128 0.0
-0.9506997 -0.104783416 0.2744438 128 0 0 1.0
-0.6022243 -0.13777666 -0.31620705 122 255 134 0.49447787
0.8413568 0.050921924 0.033913724 128 0 0 1.0
0.09565462 -0.03902897 0.34378445 0 0 128 0.0
-0.03916625 -0.01662563 -0.17805313 0 0 152 0.027414368
-0.5410475 -0.009579756 0.2989356 214 255 42 0.58495146
0.50914603 -0.047066335 -0.26338413 82 255 174 0.45694733
-0.23442551 0.27238172 -0.08721621 0 0 128 0.0
0.4402695 0.09507465 0.13903223 0 0 184 0.05535069
0.5466959 -0.09214725 0.2705622 6 255 250 0.3804975
-0.92755795 -0.022996446 -0.21745938 128 0 0 1.0
0.49366203 0.09336593 -0.2091056 0 0 148 0.020798685
-0.41974884 0.043960437 -0.33280918 0 0 240 0.11108303
0.53393316 -0.01924146 0.32962942 0 104 255 0.23107362
-0.5817617 0.16464737 -0.24707736 128 0 0 1.0
0.59044784 -0.16604453 0.09684138 0 0 128 0.0
0.5177741 0.09142514 -0.2708941 0 156 255 0.27910343
0.6881197 0.074696474 0.21503904 128 0 0 1.0
-0.5518906 0.12549426 -0.28585073 0 0 196 0.06920048
-0.37053323 -0.068520375 -0.2869477 0 0 128 0.0
0.1889808 -0.12364272 -0.11428165 0 36 255 0.16345374
-0.34040895 0.26755086 0.077939875 0 0 128 0.0
0.31013182 -0.16604453 0.1364164 0 0 128 0.0
0.27178034 -0.014262941 0.14209107 0 0 152 0.027392212
-0.636209 0.23289108 -0.025047995 0 68 255 0.1925382
-0.6075825 0.1211697 0.27904257 0 0 255 0.1264819
0.4952231 -0.19513512 -0.21651009 255 96 0 0.7821167
0.94261485 -0.091008104 -0.13892111 128 0 0 1.0
0.6125769 -0.16498975 -0.1486461 128 0 0 1.0
-0.78758985 0.08809207 0.30769017 70 255 186 0.44489577
-0.6530221 0.1820511 -0.23515846 0 144 255 0.26850513
-0.5311116 0.004258844 -0.3178525 0 0 128 0.0
0.6414566 -0.16423032 0.19056836 214 255 42 0.58656013
-0.616316 0.23548582 -0.07586688 0 0 220 0.09405073
0.70351934 -0.10299031 -0.26735008 254 255 1 0.62706876
-0.47288823 0.070435196 0.33260387 0 0 128 0.0
0.5275624 -0.23272717 -0.26408026 255 232 0 0.6471648
0.30675656 0.098217875 0.12335833 0 172 255 0.29677442
-0.44512665 -0.025738854 -0.24760476 0 124 255 0.2486114
-0.836278 0.09750063 -0.062956475 128 0 0 1.0
0.48302993 0.092226766 -0.027495066 0 56 255 0.182811
-0.14055087 -0.081409685 0.16852362 0 0 144 0.01599676
0.4549308 -0.16604453 -0.18518339 0 72 255 0.19884434
-0.82412714 -0.14823999 -0.06251347 128 0 0 1.0
-0.55731213 0.030480461 0.34287733 128 0 0 1.0
0.90668935 -0.08259103 -0.28777045 128 0 0 1.0
-0.58349156 -0.14026591 0.2978808 128 0 0 1.0
0.4775662 -0.11691329 -0.23973615 128 0 0 1.0
-0.37882373 -0.10007914 -0.31920263 0 88 255 0.21451607
0.66390216 -0.16465223 -0.1389422 128 0 0 1.0
-0.573197 -0.16849159 -0.2643967 0 100 255 0.22467603
0.6380813 0.07819831 -0.046312183 255 216 0 0.6665946
-0.93960345 -0.053922344 0.32766753 150 255 106 0.522154
-0.5699061 0.23620307 0.17343888 62 255 194 0.4384737
-0.6723033 -0.15958932 0.30967316 0 204 255 0.32626122
0.68788767 -0.18203487 0.29530716 34 255 222 0.41104534
0.7038357 -0.13315675 0.29619315 128 0 0 1.0
-0.39430776 0.11357534 0.02100332 0 0 128 0.0
0.49298698 -0.06727575 0.2655415 0 24 255 0.15292302
0.80273116 -0.15239578 -0.15963683 190 255 66 0.5628374
0.035300605 -0.11128081 -0.102299444 0 32 255 0.15841325
0.85300153 0.04518397 0.2157774 128 0 0 1.0
0.20530866 0.19652256 -0.20703825 0 0 128 0.0
0.8608701 0.0196796 0.18502025 128 0 0 1.0
-0.07205402 0.114419155 -0.23096046 0 0 128 0.0
-0.57530653 0.23850247 -0.124133214 10 255 246 0.38700697
-0.5855589 -0.11767272 0.27813548 128 0 0 1.0
-0.43320775 0.2419832 -0.2049709 0 0 128 0.0
-0.765756 -0.07780237 0.33954427 128 0 0 1.0
-0.016467571 0.07857803 0.055726394 0 0 255 0.1288073
0.38143435 0.08062428 0.107557856 30 255 226 0.40534446
0.9516859 -0.093855985 -0.014964381 128 0 0 1.0
0.67166525 -0.16507414 -0.106856056 184 0 0 0.9465983
0.5985485 -0.1781744 0.293282 190 255 66 0.56189233
0.36400953 0.08077195 0.011151757 0 32 255 0.1590858
-0.22347699 -0.06653741 -0.3363532 0 0 128 0.0
-0.73470354 0.14802419 -0.21172144 74 255 182 0.44879892
-0.14052978 0.15378323 -0.2721598 0 0 128 0.0
-0.6434025 -0.16292241 -0.08550749 128 0 0 1.0
-0.4952283 0.24974632 -0.07090945 0 0 128 0.0
0.7948625 0.05862176 0.22894093 128 0 0 1.0
0.8379394 -0.14678441 -0.136685 10 255 246 0.3855808
0.044941213 0.26822594 -0.083334655 0 0 128 0.0
0.9194099 -0.10925565 0.21944799 128 0 0 1.0
0.46123835 0.095876284 0.15960026 70 255 186 0.44669163
-0.899501 -0.13412715 -0.30506867 224 0 0 0.9081813
-0.5381153 -0.23160912 -0.24566397 82 255 174 0.4549836
-0.017733298 0.2691119 -0.16385591 0 0 200 0.07062578
-0.22533338 -0.12450765 -0.09694121 0 0 128 0.0
-0.48668462 0.01193758 -0.25699222 0 20 255 0.1484685
-0.644837 -0.16269036 -0.16866566 34 255 222 0.41040143
-0.42130992 0.062144693 0.074670084 0 0 128 0.0029796185
-0.060282774 0.255864 0.2134358 0 0 128 0.0
0.53526217 0.088492885 -0.018824846 190 255 66 0.5631785
0.8155782 0.0020649196 0.2595926 128 0 0 1.0
0.5427722 -0.037868723 0.31735188 128 0 0 1.0
-0.86083317 -0.14471707 -0.2501784 0 132 255 0.25636292
0.084832676 -0.12476079 -0.05434954 0 0 128 0.0
-0.9086565 -0.14117302 -0.1748888 188 0 0 0.9415612
-0.94219816 -0.10313797 0.30823866 255 96 0 0.78068596
0.2760627 0.0021282064 -0.33139578 0 112 255 0.23906925
-0.7207173 0.05893819 -0.3219239 128 0 0 1.0
0.6497682 0.0768904 -0.12428088 255 152 0 0.7288449
0.7032029 0.071722016 -0.05485583 255 132 0 0.74768674
0.480393 0.09237444 0.046971794 0 0 200 0.07429912
-0.33123243 -0.16604453 0.023197245 0 56 255 0.18097085
-0.046296507 -0.008799224 0.34494472 0 0 168 0.039388124
0.60375905 -0.05666475 -0.2865047 0 0 128 0.0
0.7216403 -0.16513743 0.080049425 128 0 0 1.0
0.8141859 0.054993346 -0.13508175 0 172 255 0.29753444
-0.82043535 0.10399802 -0.11436603 236 0 0 0.89667785
0.9237978 -0.10940331 0.1793034 128 0 0 1.0
-0.92179894 0.052862708 0.23590243 128 0 0 1.0
-0.7751435 0.09112981 0.30509546 0 224 255 0.3468877
0.0390134 0.081067294 -0.3109965 0 0 132 0.007207261
0.5311275 0.07834598 0.30370316 255 252 0 0.6292945
0.4421681 -0.070608824 0.27425393 0 0 244 0.11474685
-0.07829826 0.0010101481 0.345008 118 255 138 0.49410027
0.21359915 0.028075581 0.09129328 0 0 192 0.06581484
0.75771344 0.06492929 -0.06664818 255 28 0 0.8497656
-0.45923948 -0.21857214 0.26984498 255 140 0 0.7384005
-0.9387385 -0.12598433 -0.25758287 128 0 0 1.0
-0.92962533 0.04537383 -0.07350419 255 148 0 0.7311331
-0.5291919 -0.122440286 0.29218504 0 0 232 0.103965715
-0.11757795 0.22768052 0.23529066 0 0 128 0.0
0.75988626 0.06281974 0.27463365 138 255 118 0.51031923
-0.36464763 0.053643238 0.049587626 0 0 128 0.0
0.632048 0.04676613 -0.30749464 128 0 0 1.0
0.42343536 0.096509136 -0.021820396 0 0 128 0.0
0.5289125 -0.01620372 0.22651497 128 0 0 1.0
-0.8894807 0.08537076 0.1363953 58 255 198 0.43344912
0.808237 0.05604812 -0.10812178 136 0 0 0.9957632
0.94261485 -0.091008104 -0.13892111 255 252 0 0.6303408
0.23370309 0.19015175 -0.10510514 0 0 196 0.06847866
-0.027099665 -0.16604453 0.08443727 0 0 128 0.0
0.5640574 0.052651748 0.31948254 26 255 230 0.4007761
0.73760957 0.069106184 -0.19870555 58 255 198 0.4351082
-0.4290941 -0.23122941 -0.28734854 0 0 236 0.106466345
0.4918267 -0.06670617 -0.29829705 0 128 255 0.2524004
0.51336515 -0.03478879 -0.3202152 128 0 0 1.0
0.034245834 0.07623644 0.32412353 0 72 255 0.19681935
0.15191613 -0.060862742 0.11451935 0 0 128 0.0031323573
0.59458256 0.08250178 0.07359422 178 255 78 0.5506082
0.008256269 0.0017484877 0.21368894 0 120 255 0.24694493
-0.3526654 0.022232147 -0.08875618 0 0 128 0.0
0.09822827 0.21892591 0.23706266 0 0 128 0.0
-0.28115192 -0.1269969 -0.108016305 0 0 128 0.0
-0.6055363 0.23287 -0.1592782 0 160 255 0.28611198
0.005007573 -0.09126125 -0.026250435 0 0 128 0.0
0.6105729 -0.24017386 -0.29914084 128 0 0 1.0
0.061564416 0.2650405 -0.12196038 0 0 140 0.01521057
-0.4763268 0.2530372 0.022058092 0 0 128 0.0
0.09177306 0.25143397 -0.19319963 0 0 128 0.0
-0.11591141 0.26837358 0.18377563 0 104 255 0.23028775
0.6547256 0.07790298 -0.23414586 0 60 255 0.18452653
0.06734456 -0.061896417 0.113675535 0 0 128 0.0
-0.6749192 -0.07480682 0.3420968 255 180 0 0.70183635
-0.17822729 -0.1214699 0.18238333 0 0 128 0.0
0.20800886 -0.104509175 0.33102173 0 0 140 0.013537448
0.26201317 0.1525175 -0.26646405 0 0 128 0.0
0.18765177 -0.07501777 -0.038464684 0 0 128 0.0
-0.5092989 0.0010945305 -0.23066512 0 0 128 0.0
0.080022916 0.25421855 0.20634773 0 0 128 0.0
0.665421 0.0755192 0.047456987 0 208 255 0.3312119
0.9322781 -0.063478574 0.23166224 128 0 0 1.0
-0.26708123 -0.020612663 -0.058863964 0 0 128 0.0
-0.52993023 0.24213088 0.15322945 0 0 140 0.014588485
0.840281 0.026809854 0.26676503 128 0 0 1.0
-0.5776692 -0.021308815 -0.2694807 0 180 255 0.3030391
0.6852507 -0.18650709 -0.25958696 128 0 0 1.0
-0.9358696 -0.13897909 -0.16499506 128 0 0 1.0
0.44313848 -0.16600233 -0.18809454 236 0 0 0.8951195
-0.034799498 -0.16604453 0.06882665 0 0 144 0.01602039
0.5335324 -0.17572732 0.30070758 255 8 0 0.8677606
-0.6208305 -0.07265508 0.21404757 0 44 255 0.16970524
-0.33300447 0.04659737 -0.058863964 0 36 255 0.16219817
0.20714395 -0.06217066 0.1101104 0 0 128 0.0
0.5656607 0.08669977 0.28104666 150 255 106 0.52338517
-0.5925415 -0.12256686 -0.32032067 82 255 174 0.4578047
-0.5220406 0.24512644 -0.10613881 0 0 140 0.012901813
-0.021256234 0.12682328 -0.22775397 0 188 255 0.3112956
0.86973023 0.042019658 -0.086477876 128 0 0 1.0
0.7603293 0.008583406 0.2975222 22 255 234 0.3999709
-0.051696934 0.033222865 -0.15778042 0 0 172 0.043918993
0.47935933 0.09243773 -0.047071617 0 32 255 0.15834686
-0.166224 -0.12068938 0.053680137 0 0 128 0.0
-0.7861342 0.13678032 -0.023993224 0 80 255 0.20572534
-0.69230175 0.1700689 0.24149272 178 255 78 0.552853
0.5345028 0.08851398 0.060367387 62 255 194 0.43549988
0.8433609 -0.14324038 0.28144747 128 0 0 1.0
0.018403167 -0.02976808 0.05551544 0 0 128 0.0
0.37234223 0.08068757 -0.03392917 0 84 255 0.21134679
-0.35323498 0.2567711 -0.19047832 0 0 128 0.0
-0.48995444 -0.06027207 0.2672924 0 84 255 0.21173717
-0.055093296 0.27195978 -0.10818507 0 0 184 0.055477887
-0.7323831 0.17015329 -0.06232361 255 8 0 0.8676554
-0.94219816 -0.10313797 0.30823866 128 0 0 1.0
0.56066114 0.07568796 -0.2930654 128 0 0 1.0
0.34498146 0.10840696 0.2157774 0 0 128 0.0
-0.4019232 0.11614898 0.15867208 0 0 128 0.0
0.5158544 -0.16604453 0.102642626 142 255 114 0.5137868
-0.05287828 0.13903753 0.05690774 0 0 148 0.022814142
-0.47141156 0.04079612 0.34207574 0 0 140 0.012814298
-0.59456664 -0.0638161 -0.29547027 0 0 128 0.0
0.68063074 -0.046496753 -0.2515918 128 0 0 1.0
-0.94702905 -0.090354145 0.30817538 128 0 0 1.0
0.6260147 -0.004390281 -0.29044956 128 0 0 1.0
0.77260685 -0.15714227 0.18923935 128 0 0 1.0
0.018128928 -0.014073082 0.34433293 0 76 255 0.20120542
0.664535 -0.1352663 0.20160125 0 144 255 0.26730803
-0.39437103 -0.1430927 0.20333108 142 255 114 0.5149818
0.59648114 0.08437927 0.17090741 0 112 255 0.235636
0.59458256 0.08250178 0.07359422 78 255 178 0.45182678
0.34204918 -0.14397871 -0.30369747 0 160 255 0.28393546
-0.8859156 0.08393627 0.24912927 128 0 0 1.0
0.45754665 -0.16604453 0.124602966 255 236 0 0.6443076
0.08019168 0.016726242 0.260563 0 0 148 0.023415854
0.9351682 -0.056158464 0.21320374 128 0 0 1.0
0.6183993 -0.17064333 0.30191 0 88 255 0.2150136
0.6037169 -0.18882759 0.297037 128 0 0 1.0
-0.50953096 -0.11482485 0.28994894 0 168 255 0.2912714
0.68349975 -0.16450457 0.14588824 128 0 0 1.0
0.3817086 0.095876284 -0.080507874 0 0 236 0.10763943
-0.58072805 0.11530516 -0.28456393 0 160 255 0.28453037
-0.2345521 -0.060145497 0.028914105 0 0 148 0.020596003
0.6165429 -0.15323961 0.20160125 188 0 0 0.94401777
-0.58072805 0.11530516 -0.28456393 0 160 255 0.28394324
-0.50953096 -0.11482485 0.28994894 34 255 222 0.40794238
0.5703439 -0.14408419 -0.28298175 0 60 255 0.18544285
-0.5383684 -0.23173569 -0.26785636 0 0 248 0.117698155
-0.92348653 0.06568873 0.15500146 128 0 0 1.0
-0.40639547 0.25738287 -0.13033527 0 0 128 0.0
-0.56241727 0.15709522 -0.2524567 0 0 164 0.038500722
0.3591154 0.09969455 -0.24954553 0 0 148 0.021410216
-0.9495816 -0.13182776 0.15135196 78 255 178 0.45372728
0.2170588 0.00132658 0.08591395 0 48 255 0.17282753
0.27557752 -0.16604453 0.06013534 0 0 128 0.0
-0.51474154 -0.08999552 -0.2571399 0 0 192 0.065025225
-0.872752 -0.12959163 0.3185543 128 0 0 1.0
0.4725455 -0.18222472 0.285097 0 72 255 0.19816954
-0.2049552 -0.05822581 -0.21102528 0 132 255 0.25715986
-0.66105944 0.20276682 0.16362949 0 56 255 0.18230848
-0.47392192 0.23346066 0.21949019 0 0 128 0.0
-0.2331598 0.23643512 0.23143019 0 16 255 0.14118727
