ply
format ascii 1.0
element vertex 906
property float x
property float y
property float z
property uchar red
property uchar green
property uchar blue
property float weight
end_header
0.3619722 0.012736878 0.50905216 26 255 230 0.40015072
-0.12544093 0.038263816 -0.04758135 0 0 128 0.0
-0.012736096 0.038263816 0.039300732 0 0 128 0.0
0.34853882 0.038263816 0.12988916 0 0 164 0.03610677
0.26282257 0.03735899 0.2857305 0 128 255 0.25224712
0.118657164 0.03735899 -0.6122887 255 228 0 0.65123105
0.08636132 0.03735899 0.35613406 0 52 255 0.17993756
-0.24272217 0.024325795 0.6906988 0 100 255 0.22482873
-0.28563246 0.03735899 -0.27641895 0 0 148 0.02016572
0.3619722 -0.4488535 -0.6859288 128 0 0 1.0
0.1821874 0.038263816 0.5399385 2 255 254 0.3776024
-0.20971288 0.038263816 -0.47932938 0 0 128 0.0
0.1821874 0.038263816 0.5399385 0 0 132 0.0067892745
-0.012231474 0.03735899 0.51823974 0 68 255 0.19300972
0.3619722 -0.21958087 0.7264574 0 60 255 0.18459013
0.06657664 0.027475335 -0.34609166 0 0 236 0.10935696
0.090937726 0.03735899 0.03143558 0 112 255 0.23612034
-0.014006353 0.03735899 -0.27424386 0 0 128 0.0
-0.35629702 0.037289374 0.18052542 0 0 232 0.10556145
-0.31218606 -0.61649257 -0.66076726 128 0 0 1.0
-0.3571323 -0.062243067 0.72212464 0 0 224 0.09517904
-0.34589136 0.027475335 -0.29942277 0 0 156 0.03010284
-0.13586399 0.03735899 -0.11507896 0 72 255 0.19667539
-0.14371175 0.03735899 -0.1135999 0 0 164 0.03838515
-0.009395148 0.03735899 -0.57988846 0 8 255 0.13513324
-0.33729538 -0.12265856 -0.65351117 206 255 50 0.57867277
0.3619722 -0.3864369 0.698738 198 255 58 0.572215
0.117769726 0.03735899 0.4291129 0 0 188 0.05966877
0.08834501 0.038263816 0.29773706 0 0 152 0.02386835
-0.3571323 0.01816593 0.40414283 255 216 0 0.66456336
0.33169484 0.03735899 0.51458555 0 0 128 0.0
-0.11954206 0.038263816 -0.24050374 255 80 0 0.79986924
0.02417095 0.03735899 -0.5044561 0 184 255 0.30858126
-0.21340185 0.027475335 -0.28752065 0 0 128 0.0
-0.34328124 0.027475335 -0.5889195 0 16 255 0.14234953
0.31702602 -0.46407917 -0.6724954 128 0 0 1.0
0.2676252 0.03735899 -0.24654183 0 0 128 0.0
-0.068000965 0.03735899 -0.31664956 0 0 128 0.0
-0.04896451 0.03735899 -0.06499953 0 0 128 0.0
0.0006276996 0.03735899 0.26582402 0 216 255 0.33942342
0.28678346 0.027475335 0.24175875 0 20 255 0.14840652
-0.31218606 -0.005429518 -0.6740788 0 64 255 0.18946633
0.24971981 0.027475335 -0.3295957 0 112 255 0.23782292
0.30893463 0.0044367155 0.62682056 150 255 106 0.5235591
-0.083766066 0.03735899 0.2898023 0 0 128 0.0
-0.2816129 0.011971242 0.7133546 22 255 234 0.39785454
0.029234577 0.024325795 0.7305118 0 0 240 0.10988087
0.30912605 0.022603111 0.3392379 0 16 255 0.14120844
-0.31218606 -0.014947756 0.6977461 0 32 255 0.1605403
0.20155446 0.03735899 0.18832096 0 32 255 0.15799524
-0.2165862 0.038263816 -0.40142614 0 12 255 0.13842577
-0.014441372 0.03735899 0.46455833 0 0 176 0.050698865
-0.019940017 0.027475335 -0.44482365 0 40 255 0.16769552
-0.051505025 0.027475335 -0.17613828 0 0 140 0.015329383
-0.1317052 0.03735899 -0.3469791 0 0 128 0.0
0.31519893 0.03735899 -0.17991425 0 0 168 0.040401213
0.0078838235 0.03735899 0.38649842 0 0 148 0.019623267
0.06008615 0.03735899 0.26390994 0 0 128 0.0
0.0085102515 0.038263816 -0.0024959361 0 0 128 0.0
0.21930325 0.03735899 0.041093007 0 0 128 0.0
0.019768555 0.03735899 -0.5670119 0 12 255 0.14007494
0.12779257 0.03735899 -0.54491293 98 255 158 0.47242874
-0.3241752 0.027475335 -0.29204485 0 0 128 0.0
0.1574087 0.03735899 -0.3178328 0 0 128 0.0
-0.19262531 0.03735899 -0.54658335 0 0 168 0.042094197
0.31639957 0.03735899 -0.15057655 0 0 128 0.0
0.18826027 0.03735899 -0.19261682 0 0 128 0.0
0.074755006 0.008943518 -0.69845736 0 216 255 0.33753648
-0.17940073 0.03735899 0.44867137 0 0 216 0.08713731
-0.07247297 0.03735899 0.5832316 74 255 182 0.45090488
-0.33144873 0.038263816 -0.15358688 0 0 128 0.0
-0.32796857 0.024325795 -0.07284728 0 0 128 0.0
-0.26036656 0.03735899 0.7054373 0 0 252 0.12198909
-0.3223133 0.024325795 -0.033434514 0 0 128 0.0
0.28180683 0.03735899 -0.44010806 196 0 0 0.93577915
0.1822222 0.008908721 0.7397168 0 0 180 0.05329644
0.027842514 0.027475335 -0.33904433 0 0 132 0.006085619
-0.028779611 0.03735899 -0.45401123 0 168 255 0.29152513
0.3477384 0.027475335 0.57299995 222 255 34 0.59290564
-0.22700927 0.027475335 -0.19955973 0 0 156 0.029346213
0.18919991 0.038263816 0.31550324 0 0 128 0.0
-0.18244585 0.027475335 -0.30580887 182 255 74 0.5537062
-0.12973891 0.03735899 -0.03200765 0 0 128 0.0
0.36077154 0.028084358 0.38773388 0 0 132 0.007038615
-0.26760527 0.038263816 -0.4276317 0 0 128 0.0
0.03488983 0.027475335 -0.4703854 0 0 204 0.07633055
0.07077023 0.038263816 -0.5190728 166 255 90 0.5375594
-0.3571323 0.003566662 -0.263612 0 0 128 0.0
0.3392642 0.038263816 -0.46212003 255 80 0 0.796218
0.10772948 0.027475335 0.085621595 0 60 255 0.18688142
-0.31015018 0.03735899 0.44976768 0 252 255 0.37463683
0.074511394 0.03735899 -0.4723343 210 255 46 0.58128935
0.21745878 0.03735899 -0.587336 128 0 0 1.0
0.3531152 0.03735899 -0.31779802 0 32 255 0.15918547
-0.1834203 0.03735899 0.2941351 0 212 255 0.33568072
-0.04896451 0.03735899 -0.06499953 0 0 128 0.0
0.0036032323 0.03735899 0.41338262 0 88 255 0.21560949
-0.15909404 0.027718939 0.7381682 0 244 255 0.3662536
-0.14129302 0.038263816 -0.3177458 0 0 128 0.0
0.024710374 0.03735899 -0.08615887 0 0 128 0.0
-0.1834203 0.03735899 0.2941351 0 0 252 0.12454458
-0.35690606 0.02269013 -0.24488877 0 0 128 0.0
-0.10530823 0.027475335 -0.21605568 0 196 255 0.3213845
-0.33007407 -0.24594307 0.6947706 170 255 86 0.543755
-0.09210104 0.03735899 0.1597837 0 0 156 0.027982974
0.09883768 0.03735899 -0.5578939 0 52 255 0.17732221
-0.11028484 0.038263816 0.27087027 0 0 128 0.0
-0.19904621 0.027475335 0.5193882 0 0 128 0.0
0.035968676 0.038263816 -0.27855924 0 0 144 0.019394638
-0.12330063 0.03735899 0.55909675 0 0 128 0.0
0.17047668 0.03735899 -0.5084061 224 0 0 0.90952235
-0.08975194 0.038263816 0.5175785 0 12 255 0.13745847
-0.24724637 0.03735899 0.07709522 0 0 200 0.07338489
0.3619722 -0.5292799 0.73044217 128 0 0 1.0
0.31817445 -0.23393652 -0.69795275 128 0 0 1.0
-0.32570645 0.038263816 -0.2548072 0 0 128 0.0
-0.31136823 0.027475335 0.15104851 0 0 128 0.0
-0.056133635 0.038263816 0.57768077 0 28 255 0.15368125
0.021212818 0.03735899 -0.22017966 0 0 128 0.0
0.009867512 0.027475335 -0.48935223 200 0 0 0.9320829
-0.068000965 0.03735899 -0.31664956 0 0 240 0.109899096
-0.3571323 -0.11211369 0.70501965 66 255 190 0.44300976
-0.038315237 0.027475335 -0.24972616 0 0 128 0.0
0.31203198 0.038263816 -0.55397874 128 0 0 1.0
-0.10097544 0.03735899 -0.026160993 0 0 128 0.0
0.07077023 0.038263816 -0.5190728 128 0 0 1.0
0.3482778 0.027475335 0.17516598 0 0 160 0.032983042
-0.14430337 0.038263816 0.026963579 0 0 156 0.029674621
0.2386355 0.027475335 0.60508704 0 64 255 0.1897272
-0.27888098 0.027475335 -0.07677985 0 0 128 0.0
-0.2796466 0.027475335 0.37061152 0 0 128 0.0
0.0409279 0.038263816 0.12317247 0 0 128 0.0
0.26531088 0.027475335 -0.39380458 0 20 255 0.14695804
-0.0643468 0.03735899 0.17111161 0 0 128 0.0
0.25908142 0.027475335 0.2491193 0 24 255 0.15144981
0.3236557 0.038263816 0.68690544 0 0 188 0.060859352
-0.3508854 -0.031548083 -0.69845736 122 255 134 0.495205
0.24704008 0.038263816 -0.037558503 0 0 208 0.079255514
0.3505399 -0.45254245 0.6947706 128 0 0 1.0
-0.24628933 0.03735899 0.6429685 0 200 255 0.3226879
0.22240059 0.038263816 -0.33913136 0 160 255 0.28578642
-0.34389028 0.03735899 -0.46573937 0 116 255 0.24284953
0.07640808 0.03735899 -0.27610576 0 0 192 0.06339904
0.3570304 -0.0026453985 0.56273353 0 0 228 0.10149551
0.12998508 0.03735899 0.72075 0 60 255 0.18518361
0.3279189 0.027475335 0.16824049 0 0 208 0.08070317
0.21932065 0.024325795 -0.6955514 128 0 0 1.0
-0.1541348 0.038263816 -0.62591356 146 255 110 0.51845205
0.343597 0.027475335 -0.092196934 0 0 128 0.0
-0.2234073 0.03735899 -0.08443619 0 0 156 0.02909033
0.058398277 0.027475335 0.09674069 0 0 240 0.11271311
0.041502126 0.03735899 -0.10047971 0 0 128 0.0
-0.11954206 0.038263816 -0.14361623 0 0 136 0.009796284
-0.10511682 0.03735899 -0.5138003 255 180 0 0.7013351
-0.35706267 -0.41991603 0.73755914 128 0 0 1.0
0.3162256 0.03735899 -0.44035164 148 0 0 0.9834417
-0.34020132 0.024325795 0.084577546 0 0 244 0.11401345
-0.00923854 0.038263816 -0.18713558 0 168 255 0.29063296
-0.0032178718 0.03735899 0.7085694 0 0 128 0.0
-0.23104624 0.03735899 0.71866184 0 196 255 0.32041425
0.3615894 0.03683696 0.081810825 222 255 34 0.5959262
-0.25187495 0.03735899 0.5641082 0 40 255 0.16668963
-0.09037837 0.03735899 -0.12536281 0 0 180 0.0544625
-0.3490931 -0.087247975 -0.69845736 128 0 0 1.0
0.07682569 0.027475335 0.37320423 0 0 128 0.0
0.34121308 0.03735899 -0.538144 255 228 0 0.65144324
0.06657664 0.027475335 -0.34609166 0 0 128 0.0
0.0038642439 0.038263816 0.04154543 0 0 148 0.019792253
0.3619722 0.014094141 0.31595567 0 0 128 0.0
0.32543057 -0.1505172 0.6947706 0 0 128 0.0
-0.29201856 0.027475335 0.73138183 142 255 114 0.5142509
0.114916 0.03735899 0.171042 0 0 148 0.019860297
0.15168385 0.03735899 -0.111094184 0 0 128 0.0
0.19532499 0.038263816 0.59988415 0 164 255 0.28795826
0.17868985 0.03735899 -0.60430175 194 255 62 0.5655859
-0.026134696 0.027475335 -0.014641676 0 0 128 0.0
0.31702602 -0.36402473 0.70895225 0 252 255 0.37416178
-0.2681621 0.03735899 0.4769651 0 168 255 0.29029065
0.30912605 0.022603111 0.3392379 0 28 255 0.15304522
0.10698125 0.03735899 0.2423678 0 0 160 0.0322052
-0.0079334825 0.03735899 0.38538477 0 0 176 0.0480169
-0.31650147 -0.0026453985 -0.3106463 0 0 152 0.027367128
0.18542394 0.03735899 0.021673743 0 0 128 0.0
-0.3265069 0.03735899 0.4535784 0 204 255 0.32741505
0.043868627 0.03735899 0.45133373 0 200 255 0.32473415
-0.35253847 0.030155063 -0.122578695 0 0 160 0.035136707
0.25125107 0.038263816 0.27478543 0 0 128 0.0
0.015331355 0.027475335 -0.04505823 0 0 248 0.12077239
0.23898353 0.038263816 -0.29700407 0 0 128 0.0
0.060190555 0.038263816 -0.13486364 0 0 128 0.0
-0.22298968 0.03735899 0.08170642 0 0 128 0.0
0.15841794 0.03735899 -0.5454697 128 0 0 1.0
0.3573784 0.03036387 0.022247968 0 0 128 0.0
-0.21216638 0.027475335 0.24788384 0 76 255 0.20231
-0.31650147 -0.0026453985 -0.3106463 0 0 128 0.0
-0.13247083 0.03735899 0.59332407 128 0 0 1.0
-0.3175455 0.03735899 0.31085724 0 0 196 0.06904684
0.28645286 0.021541676 -0.69421154 128 0 0 1.0
-0.10819676 0.020880455 0.68667924 0 0 128 0.0
0.25770676 0.024325795 0.72487396 202 255 54 0.575109
-0.2997271 0.027475335 0.35656908 0 0 184 0.057402886
-0.025508266 0.038263816 -0.60651165 0 232 255 0.3555048
0.2757862 0.027475335 -0.40464526 42 255 214 0.41814074
-0.3222959 0.03735899 0.41033748 0 36 255 0.16270582
-0.019609403 0.038263816 -0.1564754 0 0 172 0.04362461
0.3016611 0.027475335 -0.63612777 128 0 0 1.0
0.015505363 0.03735899 -0.07672765 0 0 128 0.0
0.23543377 0.027475335 0.029295284 0 0 196 0.06771462
-0.32688972 0.024325795 -0.65371996 0 148 255 0.2719498
0.1930977 0.038263816 0.0364818 0 0 240 0.113662116
-0.27698427 0.03735899 -0.119864166 0 0 128 0.0
-0.15883301 0.03735899 -0.07258626 0 0 136 0.009200543
-0.30980214 0.029424222 -0.693881 0 0 160 0.034888644
0.32001895 -0.28606924 0.6947706 0 0 128 0.0
0.07640808 0.03735899 -0.27610576 0 0 152 0.025689894
0.32936314 -0.5105393 0.6947706 128 0 0 1.0
-0.26048836 0.03735899 0.09628827 0 0 196 0.068638936
-0.3174237 0.024325795 0.28425145 0 60 255 0.18633337
0.14124337 0.0001387211 -0.6454198 128 0 0 1.0
-0.3040947 0.0031490468 0.077443235 0 0 128 0.0
0.038021967 0.038263816 0.09872438 0 0 160 0.034807246
0.31702602 -0.5195529 0.73042476 128 0 0 1.0
-0.04952134 0.038263816 -0.26281154 0 0 128 0.0
-0.2056933 0.027475335 0.012903752 0 0 128 0.0
-0.08601077 0.027475335 0.66242254 0 64 255 0.19171965
0.25487044 0.038263816 -0.008638411 0 0 248 0.119147375
0.164195 0.027475335 -0.2863896 0 0 128 0.0
0.2768998 0.03735899 -0.44591987 82 255 174 0.45528224
0.31702602 -0.18561456 0.7172872 0 0 228 0.09885317
0.32351652 0.038263816 -0.04538885 0 0 128 0.0
0.3619722 -0.5902696 -0.68053454 128 0 0 1.0
-0.1810538 0.03735899 -0.5605562 0 220 255 0.34158963
0.3574306 0.038263816 0.44272032 0 60 255 0.18484916
-0.050965603 0.03735899 0.30440158 0 0 248 0.11913601
-0.11950725 0.03735899 -0.6597058 128 0 0 1.0
0.088849634 0.03735899 -0.29724768 0 0 128 0.0
-0.14371175 0.03735899 -0.1135999 0 0 144 0.015774366
-0.35253847 0.033165388 0.23072666 0 0 128 0.0
0.31873128 0.03735899 0.6149532 0 200 255 0.32473338
0.11526402 -0.0026453985 0.6963541 0 0 204 0.07510687
0.03330636 0.03735899 0.5948727 0 0 172 0.043301664
-0.2056933 0.027475335 0.012903752 0 0 212 0.08247323
0.23425052 0.03735899 0.39803514 0 0 128 0.0
0.08072347 0.03735899 -0.04089945 0 0 128 0.0
-0.3483449 0.03735899 0.43151423 0 0 200 0.070734404
0.015783776 0.03735899 -0.5543441 128 0 0 1.0
-0.21216638 0.027475335 0.24788384 0 128 255 0.2523852
0.21636254 0.027475335 0.38762948 0 0 152 0.025074232
0.24369913 0.03735899 0.03328006 0 0 128 0.0
0.31829625 0.03735899 -0.53609073 255 148 0 0.7329207
-0.3197728 -0.44298947 -0.65351117 232 0 0 0.9004344
0.3619722 -0.035759084 -0.6890436 128 0 0 1.0
-0.074752465 0.027475335 0.10514526 0 0 128 0.0
-0.33614695 0.024325795 0.6365998 255 88 0 0.78879815
0.3619722 -0.45581383 -0.68107396 128 0 0 1.0
-0.0008861679 0.038263816 0.36238095 0 0 180 0.05375372
0.2852174 0.03735899 -0.5457829 128 0 0 1.0
0.20272033 0.03735899 -0.67258245 255 164 0 0.7151195
-0.14807932 0.027475335 0.62615937 0 100 255 0.2266103
0.04392083 0.03735899 0.026719969 0 0 244 0.117140286
-0.084566504 0.03735899 -0.6059027 0 128 255 0.25140113
0.32664865 0.027475335 -0.47913796 128 0 0 1.0
-0.0643468 0.03735899 0.17111161 0 0 128 0.0
-0.081625775 0.038263816 -0.4272315 0 0 184 0.05672904
-0.31218606 -0.36259785 -0.6703551 128 0 0 1.0
-0.32936063 -0.11153946 0.7397168 255 32 0 0.8450984
0.20888019 0.027475335 0.022526382 0 0 212 0.082809515
0.2364952 0.038263816 0.7084302 0 92 255 0.21701618
0.12194592 0.038263816 0.09884618 0 0 128 0.0
0.0028549992 0.027475335 0.37377846 0 0 188 0.05985592
0.12185892 0.03735899 0.4365953 0 0 128 0.0
-0.15319516 0.027475335 0.6071229 0 16 255 0.14153233
-0.2929234 0.027475335 0.3095 0 0 144 0.017452927
0.1148812 0.03735899 0.06829042 0 0 128 0.0
0.09172076 0.027475335 -0.4323299 0 0 192 0.06470206
-0.34719643 0.03735899 0.30233085 255 48 0 0.8294488
-0.35502678 0.038263816 -0.07592721 0 0 128 0.0
-0.1765296 0.038263816 0.4613044 2 255 254 0.37901744
0.3618504 -0.12951447 0.73775053 2 255 254 0.37859195
0.21505746 0.038263816 -0.36375344 0 136 255 0.26112774
-0.35253847 0.033704817 0.1865287 0 0 208 0.081448145
-0.34735304 0.024325795 -0.358307 0 120 255 0.24554639
0.35144475 -0.007134802 0.73867273 128 0 0 1.0
-0.088412076 0.03735899 -0.42145443 0 24 255 0.15146877
-0.3284732 0.027475335 0.17064178 0 84 255 0.2108042
0.3521756 -0.32421175 -0.65351117 128 0 0 1.0
-0.24453185 0.03735899 -0.36658978 0 0 128 0.0
0.21902485 0.027475335 -0.49676496 42 255 214 0.41861668
-0.1046122 0.027475335 -0.48207867 126 255 130 0.50095826
0.32725766 -0.3994005 -0.69845736 128 0 0 1.0
0.34648553 0.038263816 -0.24809049 0 36 255 0.16313498
-0.2681621 0.03735899 0.4769651 0 0 128 0.0
0.3619722 -0.15215288 -0.6907662 128 0 0 1.0
0.039675042 0.038263816 -0.55081177 0 40 255 0.16723308
0.3619722 0.0022616207 0.2803363 0 0 188 0.060382634
-0.31218606 -0.37571806 -0.66440403 224 0 0 0.9092836
0.2109509 0.038263816 0.43732613 0 0 128 0.0
-0.28062105 0.03735899 0.4360732 0 0 228 0.09900537
-0.02651751 0.027475335 0.35035703 0 200 255 0.32437953
0.23592098 0.027475335 -0.13783917 0 0 128 0.0
0.3619722 -0.4488535 -0.6859288 128 0 0 1.0
0.34011683 0.03735899 0.7329479 134 255 122 0.50590473
-0.13680363 0.03735899 -0.43976003 0 0 128 0.0
-0.0755529 0.03735899 0.096705884 0 0 140 0.012386203
-0.02378559 0.027475335 0.48582208 6 255 250 0.38228664
0.07141405 0.03735899 -0.03731489 0 0 128 0.0
-0.3216869 0.038263816 0.5041973 0 0 255 0.12895939
-0.311055 0.03735899 0.37087253 0 0 128 0.0
-0.14828813 0.03735899 0.24111493 0 208 255 0.33257234
-0.24220014 0.027475335 -0.4752576 0 4 255 0.13214047
-0.14120603 0.03735899 -0.5317579 0 20 255 0.14676128
-0.23334315 0.03735899 0.5860853 0 0 192 0.0659368
0.2338329 0.027475335 -0.1991247 0 0 128 0.0
-0.1767036 0.027475335 0.012764545 0 36 255 0.16374913
-0.03189435 0.03735899 0.5447063 0 0 196 0.06960001
-0.35062438 0.03735899 -0.2932803 0 0 128 0.0
0.34018645 -0.0026453985 0.6850609 30 255 226 0.40601933
-0.19384338 0.03735899 -0.34873658 0 72 255 0.19713889
0.35602114 -0.43427166 0.6947706 128 0 0 1.0
-0.07837182 0.038263816 -0.24713345 0 0 128 0.0
-0.021558288 0.027475335 -0.024525318 0 0 148 0.020879235
0.21523148 0.03735899 -0.3961015 0 180 255 0.30410054
0.061704423 0.038263816 0.61923385 0 0 164 0.038669474
-0.3040947 0.017748315 0.64124584 0 0 252 0.12511264
0.050968144 0.03735899 0.25959456 0 0 172 0.043763354
0.13758922 0.03735899 0.42093456 0 200 255 0.32296646
-0.020705651 0.03735899 0.08765749 0 0 148 0.020127052
0.24001016 0.03735899 0.2989377 0 0 128 0.0
-0.314918 -0.5001684 -0.69845736 255 128 0 0.75030226
0.1305593 0.027475335 0.68349487 0 56 255 0.18304913
-0.03344302 0.03735899 0.0024980865 0 0 128 0.0
0.3619722 0.03139051 -0.0026525436 0 0 128 0.0
0.18935654 0.027475335 -0.2637686 0 0 128 0.0
0.16014062 0.038263816 -0.018000027 0 0 236 0.10845496
-0.12747681 0.027475335 0.6518255 0 32 255 0.15773661
0.2607171 0.027475335 0.52528703 0 0 196 0.06842592
0.036299292 0.03735899 0.34249187 0 60 255 0.18466756
0.21636254 0.027475335 0.38762948 0 0 144 0.016362904
-0.07075029 0.03735899 -0.58573514 0 164 255 0.28787112
0.12185892 0.03735899 0.4365953 0 0 136 0.011521345
-0.25721702 0.03735899 0.32674414 0 0 212 0.08589142
-0.3263503 0.03735899 0.093973964 0 0 128 0.0
0.027842514 0.027475335 -0.33904433 0 0 128 0.0
0.31702602 -0.5195529 0.73042476 128 0 0 1.0
-0.310968 0.03735899 0.71551234 128 0 0 1.0
-0.3361121 0.038263816 -0.326916 0 0 128 0.0037672885
-0.320347 -0.60624355 -0.69845736 128 0 0 1.0
0.25212112 0.03735899 -0.29338473 0 0 128 0.0
0.0045428746 0.03735899 0.12894954 0 0 128 0.0
0.24369913 0.03735899 0.03328006 0 0 156 0.027468266
-0.27835894 0.027475335 0.44987205 0 128 255 0.25130084
0.1326996 0.03735899 -0.38225046 0 0 224 0.09578866
0.249511 -0.0026453985 0.7023921 0 152 255 0.2770351
0.036299292 0.03735899 0.34249187 0 44 255 0.17096771
0.08824061 0.014250753 0.68667924 0 0 244 0.114127226
-0.33016106 0.03735899 -0.5770869 0 228 255 0.35201132
0.055266134 0.027475335 -0.45634294 255 228 0 0.65414935
-0.07565731 0.03735899 0.15821764 0 24 255 0.1526665
0.27545556 0.03735899 0.1530496 0 120 255 0.243513
0.010737551 0.03735899 0.18919101 0 0 128 0.0
0.31137076 0.027475335 -0.061136555 0 0 128 0.0
0.009867512 0.027475335 -0.48935223 74 255 182 0.45056593
0.30317497 0.038263816 0.50557196 0 0 244 0.115132906
0.28869754 0.03735899 0.67251503 0 244 255 0.36792114
-0.3535129 0.03735899 -0.40217438 0 0 232 0.104042284
-0.14334632 0.03735899 0.27320197 0 88 255 0.21310945
-0.27888098 0.027475335 -0.07677985 0 0 128 0.0
-0.14202386 0.038263816 -0.017182192 0 0 128 0.0
0.14221781 0.03735899 -0.24560218 0 0 128 0.0
-0.039063472 0.03735899 0.6632056 0 0 132 0.004346004
0.31559914 0.03735899 -0.22747058 0 0 128 0.0
-0.024934042 0.038263816 0.105284475 0 0 196 0.07043386
-0.22622624 0.03735899 0.44200692 0 0 128 0.0
-0.33007407 -0.24594307 0.6947706 255 132 0 0.7464951
0.19668224 0.038263816 -0.23733681 0 0 180 0.0514168
0.10849511 0.03735899 -0.116210006 0 8 255 0.13503441
-0.17409348 0.038263816 -0.6301245 255 112 0 0.76744825
0.25962085 0.03735899 0.12338128 0 0 220 0.09284552
-0.3571323 0.0073078275 0.27988386 0 0 200 0.07161191
0.35906628 0.00976135 0.72572654 128 0 0 1.0
-0.14473838 0.03735899 -0.20535418 0 0 152 0.023794295
-0.08496673 0.027475335 0.08208923 0 0 128 0.0
0.024971386 0.027475335 0.04847094 0 0 128 0.0
-0.27888098 0.027475335 -0.07677985 0 0 128 0.0
-0.00052075146 0.038263816 -0.06294624 0 0 128 0.0
0.24606563 0.03735899 0.6598994 0 152 255 0.27760592
0.31702602 -0.61724085 -0.6750881 128 0 0 1.0
0.35355026 -0.26868585 0.7397168 0 0 172 0.046829566
0.32001895 -0.28606924 0.6947706 0 164 255 0.28939322
0.316852 0.03735899 0.27354997 0 0 156 0.031305034
0.16765775 0.027475335 -0.26648313 0 0 128 0.0
0.34535447 0.03735899 0.19609913 0 0 255 0.12789886
0.009710905 0.036976174 0.7351404 0 0 164 0.03857458
0.21930325 0.03735899 0.041093007 0 0 188 0.059637036
0.022309067 0.03735899 -0.6786553 54 255 202 0.42834312
0.3362713 -0.0026453985 -0.628193 128 0 0 1.0
-0.35711485 0.030764088 -0.19080713 0 0 128 0.0
0.22854306 0.03735899 0.12296367 0 44 255 0.17158012
-0.163305 0.03735899 -0.040586233 0 0 180 0.052996185
-0.21921372 0.03735899 -0.13651672 0 0 128 0.0
-0.032016154 0.03735899 -0.14363363 0 0 128 0.0
0.33146864 0.024325795 0.35277572 0 4 255 0.13043945
0.34853882 0.038263816 0.12988916 0 60 255 0.18612096
-0.31218606 -0.61649257 -0.66076726 255 52 0 0.8246771
-0.1428243 0.027475335 -0.11185982 0 16 255 0.14130494
-0.34803167 0.03735899 -0.36777306 0 128 255 0.2529005
-0.009395148 0.03735899 -0.57988846 255 200 0 0.67953014
0.35147953 -0.007134802 0.7253786 14 255 242 0.38986847
-0.3571323 -0.37965062 -0.6691544 0 124 255 0.25062302
-0.35359994 0.03735899 0.3274924 0 120 255 0.24705046
-0.3040947 0.013589508 -0.5633577 0 204 255 0.32628804
0.09523571 0.03735899 0.58813864 114 255 142 0.48823902
0.103518486 0.03735899 0.024962489 0 0 128 0.0
0.18956533 0.03735899 -0.5194034 128 0 0 1.0
0.30258337 0.03735899 -0.14612195 0 0 128 0.0
-0.29635137 0.038263816 -0.49422443 218 255 38 0.58867085
0.31309345 0.03735899 -0.5105986 128 0 0 1.0
-0.31664065 0.03735899 0.50950456 0 32 255 0.1584798
-0.11552248 0.038263816 -0.5875274 0 52 255 0.17785081
-0.2834226 0.03735899 0.24163696 0 0 140 0.014234981
-0.34350747 -0.0026453985 -0.4571956 118 255 138 0.49174172
-0.21340185 0.027475335 -0.28752065 0 0 128 0.0
0.2406888 0.03735899 0.54120874 0 0 252 0.123254895
0.03901381 0.038263816 0.49335665 0 0 128 0.0
-0.14828813 0.03735899 0.24111493 0 0 160 0.033715732
0.031583678 0.027475335 0.111061536 0 0 180 0.052897587
0.33487922 0.027475335 -0.14605235 0 0 128 0.0
0.32936314 -0.5105393 0.6947706 128 0 0 1.0
0.12540866 0.027475335 0.56630063 0 0 196 0.07044335
0.2744289 0.038263816 0.117395416 0 0 192 0.06620224
-0.34566516 0.038263816 -0.5286954 0 188 255 0.31195423
0.0499937 -0.0026453985 0.71817464 0 0 128 0.0
-0.19829798 0.03424425 0.7351404 242 255 14 0.6120455
0.20275512 0.015938614 -0.6454198 128 0 0 1.0
0.104405925 0.038263816 -0.49535552 0 208 255 0.3298243
-0.34992835 0.024325795 0.057867356 0 100 255 0.22656961
0.10772948 0.027475335 0.085621595 0 0 172 0.046309855
0.181996 0.03735899 0.37438747 0 0 248 0.11843621
-0.16572371 0.03735899 -0.33746088 0 0 128 0.0
0.070317805 0.027475335 -0.50821465 86 255 170 0.46063247
-0.17605977 0.03735899 0.69351774 0 0 244 0.11559252
-0.32128668 0.03735899 -0.40053868 0 0 156 0.02764028
0.3521756 -0.32421175 -0.65351117 128 0 0 1.0
-0.1675682 0.027475335 0.3459546 78 255 178 0.45256817
-0.11004124 0.03735899 -0.56831694 0 184 255 0.30621526
0.35144475 -0.007134802 0.73867273 0 204 255 0.3290268
-0.32353136 0.024325795 -0.55404836 0 252 255 0.3753859
0.3619722 0.017104467 -0.20723347 0 0 216 0.08989859
0.08728356 0.038263816 -0.41936636 0 0 152 0.02585058
0.2068965 0.03735899 0.23735636 0 168 255 0.29343823
0.3502441 0.03735899 -0.23813725 0 0 128 0.0
-0.33210996 0.024325795 0.0791833 0 88 255 0.21564285
0.057284623 0.038263816 -0.06994134 0 0 220 0.093527466
-0.2545721 0.038263816 -0.5539265 0 0 128 0.0
0.14315747 -0.0026453985 -0.6930979 128 0 0 1.0
-0.22984558 0.03735899 0.23706056 148 0 0 0.98365027
-0.34096694 0.001687393 0.6947706 255 168 0 0.7109531
0.016445005 0.03735899 -0.06783585 0 0 128 0.0
-0.3571323 0.0115188295 -0.60647684 0 232 255 0.35609445
-0.049034115 0.027475335 0.2604994 0 176 255 0.29821885
-0.15008043 0.027475335 -0.017251795 0 0 128 0.0
0.16398619 0.027475335 0.20095393 0 0 180 0.051065277
0.15356313 0.038263816 0.61234313 0 0 232 0.10467924
0.31702602 -0.325395 -0.6929065 128 0 0 1.0
0.018185083 0.027475335 0.06273957 0 0 128 0.0
-0.35547918 0.038107205 0.60011035 0 0 128 0.0
0.29769373 0.03735899 0.30276588 0 0 236 0.108816214
0.15145762 0.03735899 0.10723336 0 0 136 0.011435291
0.060851786 0.027475335 0.72654444 0 0 240 0.11200694
0.32219404 0.038263816 -0.34748372 255 104 0 0.7743164
0.28046697 0.027475335 0.4037948 0 0 128 0.0
0.1574087 0.03735899 -0.3178328 0 0 128 0.0
0.07863538 0.027475335 0.13794573 0 44 255 0.16932546
-0.29744762 0.027475335 -0.2283754 0 0 188 0.061303012
-0.3108114 -0.0026453985 -0.48762956 0 8 255 0.1365568
0.31702602 -0.325395 -0.6929065 128 0 0 1.0
-0.21921372 0.03735899 -0.13651672 0 0 128 0.0036198504
-0.3192334 -0.378711 -0.69845736 0 212 255 0.3339976
-0.24277437 0.03735899 0.41719338 0 188 255 0.31265116
0.015087744 0.027475335 0.07037851 0 0 140 0.012698955
0.32327288 -0.0026453985 -0.50991994 128 0 0 1.0
-0.15711033 0.027475335 0.26136944 0 44 255 0.16891678
-0.052340265 0.03735899 0.40546525 0 56 255 0.18317021
0.2715926 0.038263816 -0.3829987 0 236 255 0.35981753
0.14120857 0.038263816 -0.036705863 0 0 255 0.12559476
-0.2546069 0.027475335 -0.6272534 255 76 0 0.80121905
-0.21357585 0.03735899 -0.5360385 34 255 222 0.4093988
-0.31338674 0.03735899 -0.101419345 0 64 255 0.19164334
-0.351303 -0.0026453985 -0.3225136 0 16 255 0.14493391
-0.35299087 0.0018614038 0.704167 0 116 255 0.23927283
0.033497766 0.03735899 -0.38656586 0 0 188 0.060522433
0.3418047 0.03735899 -0.04448401 0 0 172 0.046641454
-0.23068082 0.038263816 -0.46208522 0 0 128 0.0
0.17181654 0.03735899 0.47846156 0 64 255 0.19047092
-0.1986634 0.038263816 0.024614474 0 0 128 0.0
0.34646812 0.027475335 0.56153286 0 76 255 0.20213136
-0.20694616 0.038263816 9.7753e-06 0 0 128 0.0
-0.3571323 -0.5344827 -0.68469334 128 0 0 1.0
-0.1046122 0.027475335 -0.48207867 0 0 128 0.0014162292
0.08735317 0.03735899 0.056231685 0 0 128 0.0
0.32624844 0.027475335 -0.22056247 0 0 128 0.0
0.016218796 0.03735899 -0.33175343 0 44 255 0.17186567
0.31702602 -0.47445005 0.7242127 128 0 0 1.0
-0.04372688 0.027475335 0.5384768 0 0 128 0.0
-0.3509898 0.029319832 0.7397168 190 255 66 0.56466234
-0.22735727 0.03735899 -0.24650703 0 0 128 0.0
-0.23144646 0.03735899 -0.04770315 0 0 128 0.0
0.010737551 0.03735899 0.18919101 0 0 192 0.06600394
0.31702602 -0.325395 -0.6929065 128 0 0 1.0
0.29604068 0.038263816 0.14191312 0 136 255 0.26217434
-0.310968 0.03735899 0.71551234 0 240 255 0.3636596
-0.28472763 0.03735899 0.72920674 230 255 26 0.6029557
0.33202547 0.03735899 -0.29533362 0 144 255 0.2673944
0.021212818 0.03735899 -0.22017966 0 0 128 0.0
0.27776986 0.038263816 -0.47158602 82 255 174 0.4582086
0.31834847 0.03735899 -0.47431797 148 0 0 0.9835257
0.049854495 0.038263816 0.67319363 0 0 144 0.019496132
-0.13871771 0.03735899 -0.42623967 0 0 136 0.011154454
-0.20536269 0.03735899 -0.4577698 0 0 232 0.10231237
-0.047433246 0.03735899 -0.30923682 0 184 255 0.30892047
-0.35420895 0.024325795 0.32235914 78 255 178 0.45102578
0.17148592 0.024325795 -0.68547636 128 0 0 1.0
-0.08421849 0.03735899 -0.3889846 0 0 128 0.0
0.041606527 0.03735899 -0.44266596 70 255 186 0.44389033
-0.13461113 0.03735899 0.07387607 0 0 192 0.06462956
0.13309981 0.027475335 -0.4921538 0 188 255 0.31137222
-0.28698975 0.03735899 0.11546392 0 0 192 0.06657953
0.09241679 0.038263816 -0.59920335 255 144 0 0.73425114
0.36077154 0.028084358 0.38773388 0 0 228 0.10030923
-0.34046233 -0.6268982 0.7007739 128 0 0 1.0
0.27091396 0.027475335 -0.5347509 240 0 0 0.8933017
-0.19474822 0.03735899 -0.57987106 0 148 255 0.2709906
0.22036469 0.03735899 0.45378727 0 0 128 0.0
0.23129238 0.027475335 -0.6948902 134 255 122 0.50957197
0.21505746 0.038263816 -0.36375344 0 0 252 0.1222091
0.33914238 -0.0026453985 -0.15993817 0 0 128 0.0
-0.30677444 0.024325795 0.394903 50 255 206 0.4252845
-0.3571323 0.011675442 0.33883768 0 0 248 0.117843926
-0.0035484864 0.0014785854 0.7397168 0 0 172 0.045107044
0.35602114 -0.43427166 0.6947706 128 0 0 1.0
-0.2997271 0.027475335 0.35656908 86 255 170 0.46122205
-0.35711485 0.032364953 0.21755427 255 168 0 0.71287525
-0.16659376 0.027475335 0.7103965 196 0 0 0.9365082
-0.21780425 0.03735899 -0.3941526 0 0 128 0.0
-0.06836638 0.027475335 0.682155 0 0 128 0.0
-0.30966297 0.03735899 0.28414705 0 104 255 0.23090501
-0.3017456 0.03735899 -0.38894978 0 0 140 0.015157009
-0.17753884 0.027475335 0.48274216 0 0 128 0.0
0.31820926 -0.40531677 -0.653981 128 0 0 1.0
-0.17358887 0.038263816 0.6462224 0 88 255 0.21363002
-0.23675369 0.03735899 0.12969775 0 0 128 0.0
0.18403189 0.027475335 0.5336916 0 204 255 0.32793146
0.103518486 0.03735899 0.024962489 0 0 128 0.0
0.040110063 0.03735899 0.46595037 0 16 255 0.14293721
-0.24254817 0.027475335 0.02384884 0 0 184 0.056543086
0.01498334 0.03735899 -0.4267791 0 40 255 0.16772948
0.2757862 0.027475335 -0.40464526 0 0 220 0.09062001
0.19410694 0.027475335 -0.084627606 2 255 254 0.3765376
0.18919991 0.038263816 0.31550324 0 0 128 0.0
0.29398736 0.03735899 0.5022832 0 0 196 0.06748581
0.16765775 0.027475335 -0.26648313 0 0 128 0.0
0.316852 0.03735899 0.27354997 0 0 240 0.111579925
-0.31218606 -0.30782023 0.72986794 206 255 50 0.5794828
0.058398277 0.027475335 0.09674069 0 0 156 0.03015107
0.22414064 -0.0026453985 -0.66544807 255 152 0 0.7256971
0.0880666 0.03735899 -0.56201786 255 156 0 0.7251444
0.21721517 0.03735899 0.11220998 0 0 176 0.047575407
-0.25559872 0.03735899 0.2828768 0 0 208 0.07855938
-0.19036321 0.03735899 -0.556554 0 84 255 0.20792277
0.070230804 0.038263816 -0.2949682 0 0 168 0.04050971
-0.24220014 0.027475335 -0.4752576 0 0 128 0.0
-0.3040947 0.0027662283 -0.33278006 0 0 144 0.018443001
0.007640213 0.03735899 0.5751055 0 0 128 0.0
0.35320222 -0.585815 -0.69845736 128 0 0 1.0
-0.074334845 0.03735899 0.08369011 0 0 128 0.0
0.17564471 0.03735899 0.10124749 0 0 128 0.0
-0.275018 0.03735899 0.5397471 0 0 255 0.1269951
-0.16125171 0.027475335 0.21308228 140 0 0 0.9920898
-0.3241404 0.03735899 -0.0073507517 0 0 128 0.0
0.35320222 -0.585815 -0.69845736 128 0 0 1.0
0.35144475 -0.007134802 0.73867273 0 36 255 0.1608552
0.32910213 0.024325795 -0.30594808 0 100 255 0.22387114
-0.08173018 0.027475335 -0.52580684 0 32 255 0.15729025
0.0748246 0.027475335 -0.41987094 30 255 226 0.4060045
0.21145551 0.03735899 -0.5963148 0 196 255 0.3178486
0.26558933 0.027475335 0.0059086387 0 40 255 0.16668306
-0.2681621 0.03735899 0.4769651 255 0 0 0.87727934
-0.07012386 0.03735899 0.37179476 0 0 128 0.0
-0.26683965 0.03735899 0.22818618 0 0 244 0.11381529
-0.3490931 0.038263816 0.53814626 0 64 255 0.1892674
0.018185083 0.027475335 0.06273957 0 0 128 0.0
0.3172348 0.024325795 0.5617069 128 0 0 1.0
-0.034956887 0.03735899 -0.43795034 0 0 148 0.019654967
0.027842514 0.027475335 -0.33904433 0 0 164 0.03643725
-0.3535825 0.0018614038 -0.6863464 0 60 255 0.18527731
-0.3046863 0.02342097 0.6614481 0 44 255 0.1717944
-0.34385547 0.03735899 0.39892256 0 4 255 0.13279988
-0.14486018 0.03735899 -0.65062267 0 176 255 0.30104476
-0.048877507 0.038263816 0.21701486 0 64 255 0.19074894
-0.105569236 0.038263816 0.38428852 6 255 250 0.3809411
0.17564471 0.03735899 0.10124749 0 0 224 0.09747506
-0.23522244 0.03735899 -0.2457414 0 0 136 0.0106001245
0.1888519 0.03735899 -0.21184467 0 0 128 0.0
-0.25168356 0.027475335 0.722751 255 240 0 0.64204633
-0.18131481 0.027475335 0.67444646 0 164 255 0.2883975
-0.33016106 0.03735899 -0.5770869 0 60 255 0.18762606
-0.03279919 0.03735899 -0.44581547 0 0 128 0.0
-0.30583477 -0.0024539891 -0.44752073 0 0 128 0.0
0.06972618 0.03735899 0.43217546 0 0 232 0.10311584
0.18074314 0.03735899 -0.076292634 0 128 255 0.25130042
0.09231239 0.027475335 -0.4645909 0 0 192 0.06624509
0.28645286 0.014720565 -0.68958294 128 0 0 1.0
0.068177514 0.038263816 0.551423 0 104 255 0.22984841
0.3619722 -0.5902696 -0.68053454 128 0 0 1.0
-0.2700762 0.03735899 0.38002533 0 196 255 0.31861407
0.19903135 0.027475335 0.28839284 0 0 192 0.064135276
-0.14473838 0.03735899 -0.20535418 0 16 255 0.14184104
0.22361864 0.027475335 -0.62311196 255 36 0 0.8411177
-0.05049578 0.038263816 0.03479393 0 0 128 0.0
-0.31166404 0.038263816 -0.250718 0 0 228 0.09972663
0.09638417 0.03735899 0.0038031458 0 0 128 0.0
0.31702602 -0.40761366 0.726875 128 0 0 1.0
0.08575229 0.03735899 0.6053306 255 152 0 0.72804284
0.2068965 0.03735899 0.23735636 0 0 228 0.10115028
0.1103744 0.038263816 0.056997318 0 0 148 0.020395776
-0.0890559 0.027475335 -0.11001533 0 0 128 0.0
-0.35253847 0.03278257 0.39819172 0 0 255 0.1260825
0.36077154 0.028084358 0.38773388 0 0 128 0.0
-0.1810538 0.03735899 0.2720535 26 255 230 0.40229845
0.25821137 0.03735899 0.16846669 0 0 128 0.0
-0.2235987 0.03735899 0.35397637 0 112 255 0.23667243
0.32045394 -0.015713392 0.6947706 0 60 255 0.18579583
0.1799775 0.03735899 -0.502803 14 255 242 0.38959968
0.3440494 -0.11267051 -0.65351117 246 255 10 0.61638236
-0.35464397 0.03735899 -0.69525564 98 255 158 0.470752
-0.048877507 0.038263816 0.21701486 0 0 184 0.05740208
-0.27567926 0.03735899 0.18759014 0 0 152 0.025994753
-0.21481131 0.024325795 -0.6526759 0 0 216 0.088846706
0.13391766 0.038263816 -0.62718374 128 0 0 1.0
0.30900425 0.021994088 0.13253409 0 96 255 0.22026129
-0.08830767 0.03735899 -0.15233402 0 148 255 0.27147138
0.35147953 0.03735899 0.5535807 0 0 144 0.016372345
-0.34730083 0.027475335 0.41623634 0 60 255 0.18587434
0.19532499 0.038263816 0.59988415 0 0 136 0.008955101
-0.31477877 0.038263816 0.103770606 0 0 152 0.023897817
-0.25187495 0.03735899 0.5641082 26 255 230 0.40045875
0.10141299 0.03735899 -0.28324005 0 0 200 0.07392465
-0.14235447 0.03735899 -0.6269402 0 156 255 0.27905867
-0.074334845 0.03735899 0.08369011 0 164 255 0.28878197
-0.35448736 0.038263816 0.41606233 222 255 34 0.5945251
-0.23362155 0.03735899 -0.0778587 0 8 255 0.13595632
0.092556 0.027475335 0.40047124 0 212 255 0.33493012
-0.24063407 0.027475335 0.08951937 0 0 244 0.11446059
-0.1428069 0.027475335 0.4464789 0 212 255 0.33404994
0.17446145 0.027475335 -0.39935544 0 0 172 0.044328097
-0.35253847 0.03259116 0.19806542 50 255 206 0.42582682
-0.26821432 0.027475335 -0.25659946 0 0 128 0.0
-0.31218606 -0.005429518 -0.6740788 0 0 252 0.12470517
0.10139559 0.038263816 -0.5381092 206 255 50 0.57861423
-0.34996316 -0.007134802 0.7017657 46 255 210 0.4202084
0.22414064 -0.0026453985 -0.66544807 110 255 146 0.4841977
0.19013955 0.038263816 0.5759581 0 0 180 0.05275748
-0.20141271 -0.0026453985 -0.68003 128 0 0 1.0
0.31109232 0.03735899 0.43490738 0 8 255 0.13534877
-0.22403374 0.027475335 0.2899937 128 0 0 1.0
0.20272033 0.03735899 -0.67258245 255 48 0 0.83008
0.29348275 0.027475335 0.057014722 0 68 255 0.19439445
0.019751154 0.038263816 -0.36150876 0 0 128 0.0
-0.04713743 0.038263816 -0.5770173 204 0 0 0.9280891
-0.35440037 -0.51791716 -0.69845736 128 0 0 1.0
-0.3242796 0.03735899 -0.47731087 0 16 255 0.14292437
0.29376116 0.03735899 0.4595817 255 64 0 0.8156483
-0.3490931 -0.087247975 -0.69845736 128 0 0 1.0
0.15168385 0.03735899 -0.111094184 0 0 128 0.0
0.15841794 0.03735899 -0.5454697 128 0 0 1.0
-0.062885135 0.03735899 -0.33278006 0 0 128 0.0
0.33574924 0.03735899 0.4865355 70 255 186 0.44320607
0.12044944 0.0336004 0.7397168 0 0 136 0.009937448
0.3459983 0.038263816 0.13690169 0 0 232 0.102497734
-0.028448997 0.027475335 -0.600143 0 40 255 0.16659804
-0.06337236 0.038263816 -0.08358355 0 0 128 0.0
0.01877671 0.038263816 -0.4972522 0 8 255 0.13661782
-0.3040947 0.019801594 0.5196666 0 24 255 0.15096697
0.30086067 0.027475335 0.067124575 0 0 128 0.0
-0.20892984 0.03735899 0.3477817 0 8 255 0.1366724
0.06685505 0.03735899 0.5088607 0 56 255 0.18145368
-0.21601197 0.03735899 0.2833466 0 96 255 0.22008517
-0.34992835 0.024325795 0.057867356 0 0 216 0.08843717
0.3619722 0.014094141 0.31595567 0 0 128 0.0009908077
0.32285526 0.027475335 -0.19016331 0 0 160 0.033525094
-0.24230456 0.024325795 -0.6895133 0 76 255 0.20355934
0.15996662 0.03735899 -0.241165 0 0 128 0.0
-0.13659482 0.027475335 0.5486389 0 196 255 0.31810066
-0.28563246 0.03735899 -0.27641895 0 0 128 0.0
0.29398736 0.03735899 0.5022832 0 60 255 0.1846415
-0.34143677 0.024325795 0.15049168 0 240 255 0.3612943
0.35421145 0.023229562 -0.6229554 204 0 0 0.92636085
-0.14905377 0.03735899 -0.5431206 0 8 255 0.13685896
0.0880666 0.03735899 -0.56201786 0 96 255 0.22298041
0.14336628 0.03735899 0.61159486 0 120 255 0.24640179
0.07489421 0.027475335 0.2920992 0 136 255 0.26230267
-0.23257752 -0.0026453985 -0.68490213 0 156 255 0.27961734
0.3362713 -0.0026453985 -0.628193 128 0 0 1.0
-0.31015018 0.038263816 0.6501028 0 148 255 0.27416706
-0.09204884 0.027475335 -0.051861938 0 0 188 0.061792467
-0.02495144 0.038263816 0.29357827 0 0 128 0.0
0.029669594 0.038263816 -0.18633515 0 0 128 0.0
-0.31218606 -0.3427262 -0.6905574 255 40 0 0.8369957
-0.2122708 0.03735899 0.39373714 0 0 164 0.036518343
0.22567192 0.03735899 -0.57306737 0 104 255 0.22884291
0.3573784 0.031721134 0.23311059 0 164 255 0.28787085
-0.3193552 -0.46740273 0.7397168 255 224 0 0.65706223
0.30021685 0.038263816 0.3206887 0 96 255 0.22038256
0.17393944 0.038263816 -0.44174373 0 92 255 0.21871094
-0.03344302 0.03735899 0.0024980865 0 0 208 0.080384314
-0.3040947 0.017295877 0.40323797 0 0 176 0.050178085
-0.3571323 0.0034448728 -0.20323129 0 0 128 0.0
0.2607171 0.027475335 0.52528703 0 0 216 0.089380465
0.08968487 0.03735899 -0.035348605 0 0 128 0.0
-0.072072744 0.03735899 -0.10039271 0 0 184 0.05605941
0.36136317 0.028658586 -0.18252437 0 0 160 0.031749345
-0.14386834 0.03735899 -0.60825175 86 255 170 0.4589173
-0.2842752 0.03735899 -0.13077447 0 0 128 0.0
0.13861586 0.03735899 0.11906589 0 0 128 0.0
0.07640808 0.03735899 -0.27610576 0 0 128 0.0
0.31702602 -0.1639158 0.698564 0 0 160 0.03157987
-0.35253847 0.029232813 -0.57101405 0 32 255 0.15714453
0.34410164 0.027475335 -0.13705614 0 0 128 0.0
-0.21827407 0.03735899 0.107215956 0 0 168 0.041999873
-0.02585628 0.03735899 -0.46734023 0 88 255 0.21188962
0.116221055 0.027475335 -0.4897524 255 92 0 0.78611064
-0.21592495 0.03735899 -0.5128433 0 0 136 0.010868002
-0.20141271 -0.0026453985 -0.68003 0 88 255 0.21515413
-0.35424376 -0.0026453985 0.17615783 0 116 255 0.24112116
0.05154237 0.03735899 0.08341169 0 0 128 0.0
0.26477146 0.027475335 0.67305446 255 0 0 0.8746562
-0.19147687 0.038263816 0.6104464 0 236 255 0.3602107
0.30893463 0.019418776 -0.26181972 0 0 164 0.03729727
-0.09204884 0.027475335 -0.051861938 0 0 188 0.061961986
-0.17830448 0.038263816 0.5794557 0 0 196 0.07029906
0.2045996 0.027475335 -0.028736308 0 0 176 0.04850265
0.31572095 0.03735899 0.26601544 0 140 255 0.2660578
0.22850826 0.027475335 0.34741628 0 96 255 0.22077669
0.29741535 0.03735899 -0.34064522 0 20 255 0.14615454
-0.28973904 0.038263816 0.4548487 0 0 232 0.10398335
-0.16126913 0.03735899 0.24880606 18 255 238 0.39367905
0.3619722 -0.0041244766 -0.65941006 128 0 0 1.0
0.0027157927 0.027475335 -0.43071166 0 0 148 0.020259973
0.2092282 0.03735899 0.117325805 0 0 176 0.04993719
-0.24862103 0.03735899 -0.23632757 0 0 148 0.020794518
-0.074247845 0.03735899 0.646727 0 132 255 0.25531423
0.098524466 0.038263816 -0.07584021 0 0 128 0.0
-0.2678837 0.038263816 0.048958156 0 16 255 0.14381136
-0.21592495 0.03735899 -0.5128433 0 184 255 0.30589634
-0.051348418 0.03735899 0.46805587 0 184 255 0.307619
-0.35690606 0.02269013 -0.24488877 0 40 255 0.16823085
0.21865943 0.03735899 0.16523014 0 0 128 0.0
-0.31218606 -0.23851293 0.7153035 2 255 254 0.37695178
0.18530214 0.03735899 -0.66953725 128 0 0 1.0
0.09172076 0.027475335 -0.4323299 0 0 188 0.0594677
-0.35648844 0.028641189 -0.56196564 70 255 186 0.4441014
-0.27052858 0.027475335 -0.22305077 0 0 172 0.04444309
-0.09909616 0.03735899 0.6936396 0 48 255 0.17549229
-0.038315237 0.027475335 -0.24972616 0 0 164 0.037003774
-0.34566516 0.038263816 -0.5286954 0 212 255 0.334374
0.18838209 0.027475335 -0.5748597 30 255 226 0.40717876
-0.24277437 0.03735899 0.41719338 0 48 255 0.17464922
-0.2902437 0.03735899 0.6572545 0 220 255 0.34464285
-0.050130367 0.027475335 -0.33632982 0 0 132 0.0047576115
-0.26153243 0.03735899 -0.25134444 0 0 192 0.06528866
0.031583678 0.027475335 0.111061536 0 0 236 0.10843939
0.13746741 0.03735899 -0.0047406363 0 0 128 0.0
-0.027230943 0.03735899 -0.5114512 0 92 255 0.21700032
0.3531152 0.03735899 -0.31779802 128 0 0 1.0
-0.34735304 0.024325795 -0.358307 0 0 128 0.0
-0.34996316 -0.007134802 0.7017657 128 0 0 1.0
-0.09681665 0.027475335 0.58622456 0 0 228 0.09944531
-0.08056433 0.038263816 0.33286923 14 255 242 0.39183795
-0.2639163 0.038263816 -0.18221116 0 0 204 0.07704494
-0.19119845 0.03735899 0.32884964 0 76 255 0.20370565
-0.34178478 0.024325795 0.040779795 0 0 172 0.046571348
-0.15909404 0.027718939 0.7381682 26 255 230 0.4015983
-0.0090993345 0.03735899 0.3634424 196 0 0 0.934318
-0.32335737 0.03735899 -0.2950726 0 0 132 0.004775581
-0.12582375 0.03735899 -0.3605517 0 0 128 0.0
0.25875083 0.038263816 0.29383928 0 52 255 0.17873032
-0.09230985 0.03735899 0.037595455 0 0 128 0.0
-0.13953555 0.024325795 0.718018 0 84 255 0.20903675
0.34648553 0.038263816 -0.24809049 0 0 164 0.03823824
0.20244192 0.038263816 0.0019934643 0 0 128 0.0
-0.16542791 0.038263816 -0.49619076 0 0 176 0.04972611
-0.30317247 0.03735899 0.7105183 0 132 255 0.25750542
0.3619722 -0.54525375 -0.69031376 128 0 0 1.0
-0.31817192 -0.0026453985 -0.32280943 0 72 255 0.197162
0.3191489 0.03735899 -0.6398341 180 0 0 0.95043004
0.017697861 0.038263816 0.5748618 0 0 255 0.12638162
0.3619722 -0.5479161 0.71864444 128 0 0 1.0
0.21874642 0.03735899 0.364208 0 52 255 0.17961745
-0.25168356 0.027475335 0.722751 0 180 255 0.3048489
0.090937726 0.03735899 0.03143558 0 0 216 0.08991056
0.35421145 -0.40317646 0.7397168 0 200 255 0.32354376
-0.3571323 -0.46092966 -0.6709119 114 255 142 0.4893749
0.13360444 0.027475335 -0.33843532 0 0 128 0.0
-0.3571323 -0.30590615 -0.68406695 0 148 255 0.2732529
-0.07435225 0.027475335 -0.5898417 0 52 255 0.17909133
-0.11296457 0.0062463908 -0.6454198 0 0 196 0.06957179
-0.055228796 0.027475335 -0.19359125 0 0 128 0.0
-0.3571323 0.020793436 0.6945792 0 128 255 0.25348833
-0.115174465 0.038263816 -0.02924093 0 0 240 0.11327434
-0.34992835 0.024325795 0.057867356 0 0 128 0.0
0.22441907 0.027475335 -0.5316535 128 0 0 1.0
-0.0777106 0.038263816 -0.05074829 0 0 128 0.0
0.34648553 0.038263816 -0.24809049 0 0 236 0.109064534
-0.17962694 0.027475335 -0.034948383 0 0 128 0.0
0.18991335 0.038263816 -0.6878429 128 0 0 1.0
0.2604735 0.03735899 0.10947806 0 0 140 0.012255781
0.35640395 0.024325795 0.46358386 0 0 128 0.0
-0.27698427 0.03735899 -0.119864166 0 0 156 0.030509524
0.007605411 0.038263816 0.24683978 0 0 168 0.041226868
-0.33054388 0.027475335 0.29911172 0 0 228 0.101624854
0.36104998 0.03737639 -0.3334239 0 0 228 0.10059018
-0.17776506 0.038263816 -0.65873134 255 84 0 0.79531723
-0.314918 -0.5001684 -0.69845736 128 0 0 1.0
-0.2364057 0.038263816 -0.5296872 0 0 128 0.0
0.31137076 0.027475335 -0.061136555 0 0 244 0.11418944
-0.35711485 0.030764088 -0.19080713 0 0 128 0.0
-0.18933658 0.038263816 -0.17822638 0 0 128 0.0028595552
-0.17605977 0.03735899 0.69351774 50 255 206 0.42552915
0.1216153 0.038263816 0.51415056 0 0 208 0.07845391
-0.32762054 -0.11936982 0.6947706 114 255 142 0.48801473
0.24606563 0.03735899 0.6598994 0 0 192 0.063258804
-0.14209346 0.027475335 0.2199382 0 0 208 0.078884155
-0.2165862 0.038263816 -0.40142614 0 0 128 0.0
-0.14651325 0.03735899 -0.35258216 86 255 170 0.46084565
0.3057155 0.027475335 -0.559895 0 152 255 0.27682224
0.13797203 0.027475335 -0.12364014 0 0 128 0.0
0.13423087 0.03735899 -0.22461684 0 0 128 0.0
0.009867512 0.027475335 -0.48935223 94 255 162 0.46963608
-0.32716814 -0.5477073 0.6947706 128 0 0 1.0
-0.26029694 0.03735899 -0.045319248 0 0 128 0.0
0.3083604 0.027475335 -0.250109 0 68 255 0.1959233
-0.15129848 0.038263816 0.022944 0 0 160 0.03212428
0.27127936 0.03735899 -0.2104178 0 0 128 0.0
0.3389336 0.024325795 0.6768304 0 172 255 0.2954101
-0.13468073 0.027475335 -0.3335283 0 0 252 0.12267007
0.006387356 0.038263816 0.6593774 0 120 255 0.24401209
-0.095964015 0.03735899 0.40057564 0 120 255 0.24448836
-0.18963239 0.027475335 0.6479103 0 60 255 0.18493922
-0.25869608 0.019697202 0.7397168 255 120 0 0.75781983
0.14246143 0.03735899 0.57663673 0 0 216 0.08637867
0.09779363 0.027475335 0.31266692 0 168 255 0.29141974
-0.2545025 0.038263816 -0.06294624 0 0 152 0.02649931
-0.32041666 0.038263816 0.39532062 0 0 188 0.061999377
-0.033999845 0.03735899 -0.62382543 0 136 255 0.25981727
0.1640384 0.038263816 -0.6701637 128 0 0 1.0
-0.35667986 0.019279562 0.71840084 128 0 0 1.0
-0.15279494 0.038263816 0.31350216 0 0 128 0.0
0.35243657 -0.0026453985 0.121502 0 0 128 0.0
0.3619722 0.008404087 0.2515032 0 0 128 0.0
0.06133901 0.03154712 -0.69845736 212 0 0 0.9192318
-0.29889187 0.03735899 -0.64641166 226 255 30 0.5991862
0.3083604 0.027475335 -0.250109 0 0 244 0.1160403
0.1572695 0.03735899 0.020908108 0 0 128 0.0
0.012129613 0.027475335 -0.16166084 0 0 128 0.0
-0.35299087 0.0018614038 0.704167 255 40 0 0.8369074
-0.20021205 0.027475335 0.13084622 255 8 0 0.8698704
-0.2997271 0.027475335 0.35656908 0 200 255 0.32207188
0.015505363 0.03735899 -0.13481145 0 0 156 0.02871349
-0.30844492 0.027475335 -0.6275144 226 255 30 0.5992686
-0.3198076 -0.0026453985 0.54150456 0 0 136 0.008270067
-0.21449809 0.027475335 0.22192189 0 0 128 0.0
0.16896282 0.03735899 0.5058851 0 0 164 0.03648125
0.35080093 -0.59938765 -0.69845736 128 0 0 1.0
0.28869754 0.03735899 0.67251503 0 180 255 0.3031385
0.050115507 0.03735899 0.25240806 0 0 212 0.084634244
-0.07489167 0.038263816 0.36220694 0 44 255 0.17112389
-0.08863828 0.027475335 0.09583585 0 0 156 0.029372154
0.35360244 -0.13142854 -0.69845736 66 255 190 0.4396098
-0.06676551 0.0056025693 0.68667924 0 0 172 0.04476946
0.2000928 0.03735899 0.7300942 0 160 255 0.28372627
-0.3489713 0.03735899 -0.2416348 0 0 128 0.0
0.20345116 0.03735899 -0.6535634 144 0 0 0.98764163
0.16682252 0.038263816 0.059276823 0 0 128 0.0
-0.3550442 0.03735899 0.02096031 0 200 255 0.32391056
-0.20325719 0.03175593 -0.693881 0 0 224 0.09436815
-0.30682662 0.024325795 0.4437644 0 248 255 0.37139794
0.32664865 0.027475335 -0.47913796 128 0 0 1.0
-0.2816129 0.012841295 -0.694664 128 0 0 1.0
-0.33016106 0.03735899 -0.5770869 128 0 0 1.0
-0.049068917 0.03735899 -0.42596123 0 0 128 0.0
0.25923803 0.03735899 0.4955491 0 224 255 0.34667408
-0.32013822 0.03735899 0.18282233 0 144 255 0.26699936
-0.1986634 0.038263816 0.024614474 0 0 196 0.06840691
-0.34803167 0.03735899 -0.36777306 0 104 255 0.22930668
0.117125906 0.027475335 0.23190995 0 0 128 0.0
-0.23257752 -0.0026453985 -0.68490213 70 255 186 0.44330892
0.30794278 0.038263816 0.07311044 0 0 128 0.0
0.32010594 0.024325795 -0.69210607 128 0 0 1.0
0.34469324 0.03735899 -0.6288543 128 0 0 1.0
-0.21665579 0.008752109 0.68667924 0 220 255 0.34295225
0.1572695 0.03735899 0.020908108 0 0 128 0.0
-0.14486018 0.03735899 -0.65062267 54 255 202 0.42866012
-0.34389028 0.03735899 -0.46573937 0 88 255 0.21427043
0.29699773 0.027475335 0.62266177 248 0 0 0.8861292
-0.14773132 0.027475335 0.41576654 226 255 30 0.5986858
-0.2497695 0.03735899 0.35771754 0 36 255 0.16421804
