ply
format ascii 1.0
element vertex 909
property float x
property float y
property float z
property uchar red
property uchar green
property uchar blue
property float weight
end_header
0.50834805 -0.0057178643 -0.10960627 222 255 34 0.59324074
0.8205166 0.088856705 0.15212385 128 0 0 1.0
0.08827689 -0.031203179 -0.25949484 0 0 128 0.0
0.6007084 -0.15845941 0.1208048 255 216 0 0.66536695
-0.5191124 -0.12467062 0.032383323 255 200 0 0.6818225
0.025468476 0.29953104 0.14252162 0 0 192 0.066258244
0.8407004 0.050703257 0.11365103 255 16 0 0.8615965
0.7891123 -0.19435602 0.06847155 128 0 0 1.0
-0.5410635 -0.11909239 0.1831874 0 64 255 0.19156438
0.8392314 0.089218654 0.28776872 128 0 0 1.0
0.4334677 0.14365973 -0.17594899 0 0 128 0.0
-0.35785446 -0.01657627 -0.0006389992 0 196 255 0.32022086
-0.41293427 0.30493897 -0.075114876 0 0 128 0.0
0.49061272 0.14414941 0.100067385 0 120 255 0.24701795
0.31121483 0.13410006 -0.34614918 128 0 0 1.0
0.27272072 0.1271379 -0.09276511 0 108 255 0.23441884
0.8636521 -0.1410008 -0.28738603 128 0 0 1.0
0.48810035 0.069141254 -0.06840821 0 112 255 0.2391165
0.4752619 0.14261645 0.22651456 0 120 255 0.24526046
0.6346888 -0.09311737 -0.162706 128 0 0 1.0
-0.336819 0.30596092 0.10817925 0 0 128 0.0
-0.8247446 -0.013701986 0.35743284 128 0 0 1.0
0.7952655 -0.046788182 -0.34930024 128 0 0 1.0
0.5386452 -0.060542163 -0.28595954 0 0 200 0.07203207
-0.24009402 0.30585447 0.14264935 0 132 255 0.25830886
-0.088778965 0.03249946 0.23641488 0 96 255 0.22073647
0.5123295 0.13348262 0.3336934 128 0 0 1.0
0.6571295 0.0075464216 0.28417054 128 0 0 1.0
-0.47870216 -0.117963955 -0.0070262966 0 72 255 0.19848311
-0.58826554 -0.029670227 -0.27518633 0 92 255 0.21657903
0.6135043 0.14074284 0.0766473 0 88 255 0.21435045
-0.6311669 -0.16637966 -0.3248156 174 255 82 0.5477152
0.37504524 0.15571041 0.08575983 0 132 255 0.2565659
-0.9324344 0.05900674 0.3376748 128 0 0 1.0
-0.50224996 -0.12539451 -0.037131753 0 0 208 0.079500556
-0.7927442 -0.015618175 -0.29192102 255 96 0 0.7821218
-0.6454957 -0.14900623 0.29013202 250 255 6 0.6229579
-0.0072983545 -0.13572064 0.056761507 0 0 184 0.055353325
0.8843895 0.026133453 0.14522555 128 0 0 1.0
-0.6020621 -0.20666222 -0.28766283 138 255 118 0.5130826
-0.41274264 0.08653598 0.2880455 0 0 224 0.09705647
-0.44467914 -0.016959505 -0.34559563 0 76 255 0.20236117
0.46851265 -0.082642205 0.3741037 0 116 255 0.240639
-0.0030614485 0.06464885 0.08412043 0 0 128 0.0
0.6953682 -0.2041286 0.31270048 255 220 0 0.6593985
0.3774298 -0.1920353 0.2564284 118 255 138 0.49173257
-0.06378335 0.11862151 0.08269393 0 0 128 0.0
0.8392314 0.089218654 0.28776872 26 255 230 0.400792
0.3266508 0.18317577 -0.12885334 0 0 128 0.0
0.48695067 0.00096750556 -0.07639234 0 0 192 0.063881785
0.67771786 0.03652346 0.21488968 0 200 255 0.32533467
-0.96398765 0.014742776 -0.14680164 128 0 0 1.0
0.7494898 -0.0070379055 -0.098684 128 0 0 1.0
0.88528377 0.03247817 0.06659794 128 0 0 1.0
-0.12028963 0.1025894 -0.12174214 0 0 132 0.0046555516
-0.9482323 -0.086985566 0.23794782 128 0 0 1.0
-0.55520064 0.30123433 0.11897377 0 0 212 0.08495157
0.7081427 -0.022665493 0.15261354 110 255 146 0.48279932
0.01989024 0.3008511 -0.02476169 58 255 198 0.43274352
-0.5547748 0.04384756 0.30612156 255 248 0 0.6314918
-0.4434017 0.039780978 0.075540155 0 0 128 0.0
-0.8082653 0.06892834 -0.34640467 128 0 0 1.0
0.31121483 0.13410006 -0.34614918 0 36 255 0.16384447
0.46003887 -0.032863874 -0.34668145 248 0 0 0.8855531
-0.4033746 0.10429267 0.25397995 90 255 166 0.46637177
0.5444789 -0.20231886 0.35187587 128 0 0 1.0
-0.35223365 -0.04463779 -0.25002035 0 0 128 0.0
-0.4419326 0.019703576 0.37840444 0 0 172 0.046644457
-0.42794442 -0.10335834 0.3432956 0 0 132 0.004695254
0.00677499 0.3012769 -0.10164345 0 40 255 0.16478893
-0.5860087 -0.077255584 0.33356565 174 255 82 0.5458099
0.04729174 -0.13216504 0.08778248 0 0 128 0.0
-0.36920258 0.0435069 0.17599103 0 0 128 0.0
-0.08675632 0.0068864007 0.1945355 0 48 255 0.17524634
0.53376955 -0.17004173 0.33311853 0 236 255 0.3586182
0.52955395 -0.1006331 0.009176146 0 116 255 0.24125928
0.7322654 -0.21424182 0.37714827 255 60 0 0.8179312
-0.60602224 -0.016320776 -0.25828123 128 0 0 1.0
0.6772495 0.035607945 -0.16162017 0 0 252 0.124757566
0.3564795 0.05534469 -0.22913389 128 0 0 1.0
0.22023845 -0.12411705 0.028934183 0 0 128 0.0
0.5842505 -0.13706197 -0.19015008 128 0 0 1.0
0.1693104 -0.025603646 -0.21484764 0 0 128 0.0
-0.58826554 -0.029670227 -0.27518633 0 0 128 0.0
0.77297384 0.12270938 0.036002792 255 12 0 0.8640458
-0.89560103 -0.16373958 -0.29396498 255 0 0 0.87832505
0.7560475 -0.063011914 0.31491473 0 172 255 0.29611123
-0.4411661 0.18089764 0.21999952 0 0 128 0.0
-0.94471925 -0.0064417575 0.32781708 214 255 42 0.588234
0.72866726 -0.17236243 0.27497283 0 192 255 0.31479672
0.593874 0.11340522 -0.34186968 255 56 0 0.8199998
0.0049226726 -0.068505 -0.21363406 0 0 236 0.10738674
-0.4870908 -0.075083904 0.33573732 0 248 255 0.3709288
-0.48945406 -0.1412563 0.2505095 0 228 255 0.35089374
0.53470635 -0.18956555 -0.34297684 208 0 0 0.92449147
-0.9695659 -0.0034184377 0.042411383 128 0 0 1.0
0.23175688 0.13656981 -0.27424952 0 0 128 0.0
0.22509278 0.10852958 -0.23867224 0 0 152 0.024270821
-0.43963316 0.23010112 -0.024910728 0 0 128 0.0
0.52550864 -0.11400383 -0.27077907 0 200 255 0.3240276
0.76203024 -0.17987816 0.34665957 128 0 0 1.0
0.72841173 -0.08283383 0.35900837 255 112 0 0.7680032
0.32884377 0.14055124 0.18314481 0 0 255 0.12654656
0.1896433 0.25058305 -0.19849616 0 0 128 0.0
0.8468961 -0.18454087 0.06517145 128 0 0 1.0
-0.7252518 0.0798932 0.35743284 160 0 0 0.9712086
0.6417574 -0.026476577 -0.26330593 128 0 0 1.0
0.8923098 0.007993531 -0.049246326 255 64 0 0.8121064
0.085402615 -0.02177127 0.056761507 0 0 128 0.0
0.8116595 -0.074871 0.05382335 128 0 0 1.0
0.36190867 0.14219064 0.2677339 0 8 255 0.13538617
0.62819505 -0.2636156 -0.36603495 128 0 0 1.0
0.4433467 -0.07987438 -0.0041307216 0 0 164 0.036888607
-0.13781211 -0.12788557 -0.35994574 0 0 240 0.110452324
0.67392814 -0.031054141 0.38053355 128 0 0 1.0
-0.06146263 0.29823232 0.2396298 0 0 160 0.03254571
-0.56286544 -0.020110572 -0.2640511 0 0 168 0.039934434
-0.43990996 0.033521425 -0.12823589 0 0 128 0.0
-0.5532206 -0.09865303 0.044497896 170 255 86 0.54335964
-0.43829182 -0.1601627 0.38053355 0 80 255 0.20549265
0.4697901 -0.08592103 0.04279462 0 0 128 0.0
-0.52160347 -0.16925395 -0.027614683 0 0 216 0.08890497
0.17695385 -0.14002143 -0.29185715 0 0 128 0.0
0.11806299 -0.0043765325 0.35743284 0 0 128 0.0
-0.6470713 -0.13469867 0.3277745 255 20 0 0.85781825
0.16158177 -0.14847395 -0.04239063 0 0 128 0.0
0.26299074 0.124412656 -0.14394864 0 0 128 0.0
0.34928313 0.01998036 0.056761507 0 0 196 0.069256246
0.8128518 -0.19033204 0.15900083 128 0 0 1.0
0.14742325 -0.18958685 -0.28451174 18 255 238 0.3944066
0.36084414 0.16335388 0.16504747 0 84 255 0.2092733
-0.35876998 0.02104491 0.11167097 0 0 128 0.0
-0.5107664 -0.16610289 0.3350773 0 0 255 0.12874869
0.61729413 0.016211854 0.30959198 0 132 255 0.25539443
-0.70055425 -0.034098748 0.3589232 128 0 0 1.0
0.01710112 -0.19150303 0.26933074 0 52 255 0.17951238
-0.5547748 0.04384756 0.30612156 0 200 255 0.3237467
0.48948428 -0.12552226 -0.26822418 242 255 14 0.61250854
-0.43726987 -0.021388032 0.034810495 0 100 255 0.22437721
0.022040628 0.03765188 -0.34640467 0 4 255 0.1305586
-0.62910163 0.2999143 0.11090449 0 164 255 0.287986
-0.6482423 0.03614022 0.3591361 255 80 0 0.7968582
0.03172803 -0.069399215 0.2687133 0 124 255 0.24803965
0.07190412 -0.04568105 0.2982226 128 0 0 1.0
0.5695171 -0.21251723 0.2957741 255 132 0 0.74889684
-0.5167704 -0.059520196 -0.31583083 0 0 252 0.122902445
0.53623927 -0.0067185415 -0.06862113 206 255 50 0.5769197
-0.8173779 0.20318931 -0.28270203 128 0 0 1.0
-0.0016562423 -0.19356826 0.20735268 0 0 156 0.02942231
-0.051008753 -0.13363414 0.018629346 0 0 204 0.07768243
-0.45076835 0.058538336 0.21003534 0 200 255 0.32501993
0.0007496389 -0.03360906 0.23196507 0 0 156 0.028492127
-0.47433746 -0.131356 0.32811514 0 0 248 0.11997573
-0.96094304 -0.08185444 0.0010642795 74 255 182 0.4507366
-0.726146 0.096862115 -0.34640467 146 255 110 0.51865536
-0.8143759 0.17638396 -0.29705217 0 128 255 0.2542622
0.7750603 -0.1471752 -0.34812924 128 0 0 1.0
-0.9115267 0.11089288 -0.33354494 128 0 0 1.0
-0.5560523 -0.104401596 0.012646576 22 255 234 0.3962178
0.5632576 -0.050854765 0.1675598 150 255 106 0.5241309
-0.062080067 0.30404475 0.13626204 0 0 128 0.0
0.18691804 -0.12737457 -0.3602651 0 36 255 0.16376612
0.4073862 0.01246464 -0.008836031 0 0 128 0.0
-0.9512769 -0.088837884 0.19979437 255 196 0 0.68524945
-0.73451334 0.16989021 -0.3005226 0 76 255 0.20117936
-0.9156145 0.14261645 0.2809556 128 0 0 1.0
0.3016339 0.12143192 0.39873734 0 0 168 0.041102137
-0.54227704 -0.08038536 -0.017778248 128 0 0 1.0
-0.43428913 -0.13580582 -0.29519984 170 255 86 0.5422188
0.11533774 -0.1318244 0.36854672 0 0 128 0.0
0.7395895 -0.2187555 -0.32236713 186 255 70 0.5600561
-0.76014775 -0.025454609 -0.34640467 255 36 0 0.84106374
-0.95683384 -0.08802883 0.06525661 128 0 0 1.0
0.2694845 0.21391997 0.13151416 18 255 238 0.39364254
-0.5481108 -0.17059527 -0.016330458 0 44 255 0.17078629
-0.5989323 -0.047384333 0.0048753666 0 44 255 0.17246662
0.75709075 -0.031820614 0.26809585 204 0 0 0.92906785
-0.32579026 -0.023346802 -0.048799213 0 0 168 0.0409996
0.87346727 -0.062884174 0.19668588 150 255 106 0.5219367
-0.54134023 0.045721166 -0.33999607 118 255 138 0.49195066
-0.40595084 -0.13318701 -0.37133643 0 0 212 0.08515991
-0.55635035 -0.14817588 0.061871346 0 36 255 0.16193867
-0.5401905 -0.14517385 -0.27222684 0 40 255 0.16860321
0.593874 0.11340522 -0.34186968 0 0 252 0.12530181
-0.8988585 0.16311967 -0.09003986 128 0 0 1.0
0.21389373 0.05968805 -0.17752454 0 0 168 0.04253128
-0.43924993 0.22950497 -0.143097 0 0 128 0.0
0.80220634 -0.19237597 -0.07852143 220 0 0 0.91287965
-0.40111777 0.10105644 0.035598263 0 0 128 0.0
-0.58886176 -0.085580364 -0.31583083 255 208 0 0.6739363
0.34928313 0.01998036 0.056761507 0 92 255 0.21678995
0.025000077 -0.029648935 -0.2780819 0 0 128 0.0
0.19117625 0.011208472 -0.34640467 0 40 255 0.16478366
0.3786221 0.14287195 -0.2795297 0 0 168 0.040134188
0.6300261 -0.022665493 0.14569396 242 255 14 0.61522406
0.11052597 -0.05971181 -0.27005517 0 0 240 0.113596566
-0.7014698 -0.16887072 -0.32492208 186 255 70 0.5578897
0.22468826 0.123177774 -0.300991 0 0 128 0.0
-0.3994358 0.10126936 -0.06444809 0 0 128 0.0
-0.47599816 -0.035461374 0.11111741 0 0 192 0.06348233
0.29848284 -0.04382873 -0.34640467 0 0 196 0.06767966
0.30997998 0.19245866 -0.11822913 0 0 128 0.0
0.6800599 0.006354126 0.29805228 0 188 255 0.31041074
0.3266508 0.18317577 -0.12885334 0 0 128 0.0
-0.35598087 -0.0071230703 -0.14720617 0 0 128 0.0
-0.35736477 -0.031096721 0.15561557 128 0 0 1.0
-0.87497 -0.14510997 0.06840768 255 148 0 0.73277795
0.13865137 0.051129077 0.35743284 0 0 184 0.05655955
0.21544798 -0.10244283 -0.0017674218 0 0 128 0.0
-0.02833385 0.030966507 -0.058656942 0 0 128 0.0
-0.8589592 -0.17583287 -0.30925187 0 148 255 0.2727908
-0.6037654 0.30217114 -0.08099119 6 255 250 0.3834378
-0.94471925 -0.0064417575 0.32781708 220 0 0 0.9132805
0.62323433 -0.19780517 -0.3234743 182 255 74 0.5565808
0.5209736 -0.09473549 0.30678156 0 60 255 0.1850557
0.7953932 0.11662015 0.021120392 58 255 198 0.4337074
-0.9442509 0.121921614 0.22672747 128 0 0 1.0
-0.59156567 -0.03122447 -0.31131712 0 0 180 0.05420721
-0.47552976 0.21145022 -0.22811192 0 0 128 0.0020591354
0.5508875 -0.022984855 -0.10306994 0 104 255 0.23091069
-0.56177956 -0.13365541 0.08733537 0 208 255 0.33115354
-0.5492818 -0.049854085 -0.048437268 0 156 255 0.27940235
0.16249728 0.024195975 -0.34640467 0 0 128 0.0
0.5876145 -0.0019706495 -0.25828123 255 196 0 0.6831325
0.55610377 -0.22035232 -0.369697 14 255 242 0.3914726
0.6092461 -0.11962466 -0.33162874 224 0 0 0.90939355
0.28127968 -0.09535293 0.056761507 0 0 152 0.024796233
-0.42594308 -0.0012254661 0.2533412 0 0 192 0.066240825
0.73296803 -0.21703093 0.28261632 66 255 190 0.43970066
0.031536408 0.30210727 0.104048796 0 0 128 0.0
0.7649471 -0.051599946 -0.113374785 0 236 255 0.35712457
-0.2611934 -0.019280225 0.09163614 0 200 255 0.32480422
-0.13685401 0.20729847 -0.21806258 0 0 128 0.0
0.67771786 0.03652346 0.21488968 128 0 0 1.0
0.7395895 -0.2187555 -0.32236713 128 0 0 1.0
0.7331171 -0.036376886 0.085546926 128 0 0 1.0
-0.69793546 0.29797682 0.00021263985 0 88 255 0.21398138
0.20929487 0.062072642 0.2866829 0 8 255 0.13540022
0.6373928 -0.073827736 0.14611979 255 220 0 0.66067785
-0.061654247 -0.19320633 0.21893497 0 0 128 0.0
-0.82700145 0.21711363 0.011475572 128 0 0 1.0
-0.7226756 0.28856617 -0.09815172 255 212 0 0.66888094
-0.43726987 -0.023389386 0.19479099 0 48 255 0.17458828
0.26299074 0.124412656 -0.14394864 0 148 255 0.27269003
0.62964284 -0.09396902 -0.26560536 0 112 255 0.23560147
-0.5547748 -0.122456364 -0.053547103 0 0 228 0.10048033
-0.8998379 0.15873373 -0.19525993 166 255 90 0.53762174
-0.02833385 0.030966507 -0.058656942 0 0 255 0.12717694
0.06666654 -0.05496392 0.12106029 0 0 128 0.0
0.3131736 0.18771076 0.25838718 0 56 255 0.18427265
0.7282627 -0.14378993 0.33758965 128 0 0 1.0
0.49740452 0.14459652 0.0787338 0 60 255 0.18530364
-0.43726987 -0.064736485 0.008494835 0 0 240 0.11344422
0.088063985 -0.13259088 0.2816582 0 0 196 0.0669595
-0.5138323 -0.019003443 -0.28864223 248 0 0 0.8832613
-0.07998578 0.11076514 -0.06930244 0 0 128 0.0
-0.61856264 0.30023366 -0.019289905 0 40 255 0.16710216
-0.43569434 0.023323046 0.1179518 0 20 255 0.14542615
0.66879696 -0.024943626 -0.33658952 212 0 0 0.9205641
-0.47506136 -0.11453611 0.33188364 0 72 255 0.19807069
-0.7415394 -0.060031183 0.3171077 0 44 255 0.17076804
0.34581268 0.1734884 -0.010773511 0 0 128 0.0030880482
-0.5309502 0.3008724 0.14190418 0 0 128 0.0
-0.29638737 -0.024304897 -0.16796488 0 0 128 0.0
-0.5358471 -0.13687037 0.040814556 0 184 255 0.30731264
-0.528523 -0.05521941 0.33358693 0 220 255 0.34198967
0.6350082 -0.049449556 -0.32324007 255 76 0 0.8008235
-0.6633376 -0.11419546 0.38359946 128 0 0 1.0
0.49829876 -0.17945233 0.3705055 138 255 118 0.5111488
-0.89089566 -0.14510997 0.03398015 18 255 238 0.39257556
-0.5891385 0.2965929 0.22395964 0 0 212 0.082934365
0.80799747 -0.044105515 0.027528977 0 244 255 0.36655504
0.59734446 -0.02349584 -0.26136845 166 255 90 0.5383874
0.30063322 0.14896117 -0.3326507 0 68 255 0.1922677
-0.039362583 -0.096119404 0.20943919 22 255 234 0.39842317
0.7402495 0.07048258 0.070110954 128 0 0 1.0
-0.55635035 -0.14817588 0.061871346 78 255 178 0.45213732
0.039328907 -0.092734136 0.37695664 0 156 255 0.28046325
-0.8792708 0.103590064 0.35743284 130 255 126 0.5032766
-0.09703987 -0.052430294 0.03642861 0 0 200 0.07171587
-0.54061633 -0.01870537 -0.3682492 0 184 255 0.30936566
-0.12795438 0.15215482 0.32104653 0 0 152 0.025325831
-0.5517728 -0.03533363 -0.08265188 0 112 255 0.23840779
0.55557156 0.027261877 -0.26466855 46 255 210 0.42084342
-0.63742644 -0.21952198 -0.36348003 98 255 158 0.47162712
-0.45061934 -0.18390214 0.37129328 178 255 78 0.5490358
-0.08984351 0.049958073 -0.13636905 0 0 128 0.0
-0.06772218 0.13107674 -0.20222208 0 0 128 0.0
-0.42573014 -0.04255127 -0.27407917 0 0 128 0.0
0.85522085 -0.14819716 -0.12957723 128 0 0 1.0
0.865036 0.050703257 -0.15250762 128 0 0 1.0
0.01631335 -0.14002143 -0.28036 0 84 255 0.211068
0.6452066 -0.2376619 -0.35579398 194 255 62 0.5653839
0.14816846 -0.02668949 0.21925433 78 255 178 0.45441908
0.6188696 -0.1202208 0.37073973 196 0 0 0.9340626
-0.44695726 0.14172223 0.27269468 0 0 128 0.0
0.888818 0.018404827 -0.07690332 0 148 255 0.2710209
-0.08641567 0.0026069123 0.14590688 0 0 156 0.028075323
0.89494985 -0.057582717 0.19181025 128 0 0 1.0
0.6953682 -0.2041286 0.31270048 226 255 30 0.5990966
-0.949233 0.08955931 0.09800215 128 0 0 1.0
0.29603437 0.19974017 -0.15335926 0 0 128 0.0
-0.6394278 -0.08653846 -0.30650535 0 12 255 0.13835886
-0.42739084 -0.15030496 -0.30959255 0 0 184 0.05542223
0.18736516 0.054961454 -0.34640467 0 44 255 0.17029795
0.2694845 0.21391997 0.13151416 0 0 216 0.08636033
0.68255097 -0.14291699 0.13340907 128 0 0 1.0
0.7261549 -0.17772777 0.31178495 160 0 0 0.96956706
-0.95736617 -0.02049381 0.26106983 128 0 0 1.0
-0.4411661 0.18089764 0.21999952 0 0 128 0.0
0.03172803 -0.069399215 0.2687133 0 0 255 0.1290337
-0.87497 -0.14510997 0.06840768 255 12 0 0.86620265
0.20950778 0.045486964 -0.038196303 0 0 128 0.0
-0.78014 -0.19060881 -0.27041712 190 255 66 0.5616968
0.5632363 -0.15045401 0.1354743 198 255 58 0.57219434
0.8116595 -0.074871 0.05382335 128 0 0 1.0
0.49829876 -0.17945233 0.3705055 128 0 0 1.0
0.26956967 -0.10152732 0.056761507 0 0 128 0.0
-0.7895719 0.24240732 -0.046627536 150 255 106 0.524062
0.3885437 -0.19295083 0.22762169 0 0 248 0.11843795
-0.8569365 0.18834949 0.21163215 128 0 0 1.0
-0.050071947 -0.13953173 -0.045733314 0 0 152 0.024300149
-0.34933808 0.30427894 0.16174738 0 0 128 0.0
-0.63218886 0.29946718 0.18305965 128 0 0 1.0
0.6021562 -0.028626967 -0.28925964 0 20 255 0.14822106
0.34883603 -0.19009784 0.2887268 0 48 255 0.174176
0.48790875 -0.007804381 -0.35611337 255 212 0 0.6675905
0.3131736 0.18771076 0.25838718 0 140 255 0.26635697
-0.074492715 -0.0073998524 0.284937 0 24 255 0.15090488
-0.088778965 0.03249946 0.23641488 128 0 0 1.0
-0.38199845 -0.18492413 0.33607796 252 0 0 0.87846524
-0.55268836 -0.081662826 0.0567828 0 140 255 0.26511598
0.17644288 0.25209472 0.26524287 0 0 128 0.0
-0.080645815 0.0045869746 -0.19442958 0 0 252 0.12545797
0.59106356 -0.07001665 0.33573732 255 244 0 0.6389385
0.6498267 -0.022665493 0.15276258 142 255 114 0.5167191
0.49740452 0.14459652 0.0787338 128 0 0 1.0
-0.82135934 0.21298318 0.22615261 46 255 210 0.41971985
-0.7022788 0.21766719 0.28598028 252 0 0 0.87888944
-0.6909946 0.043102372 -0.34640467 230 255 26 0.600704
0.8166416 0.09236971 -0.16517575 255 196 0 0.6841934
-0.49850276 -0.027264345 0.13458006 0 0 128 0.0
0.4648932 0.030370362 0.09216842 0 76 255 0.20008793
-0.5438739 -0.2385987 -0.3328636 0 0 252 0.12311411
0.52114403 0.14112608 0.26426348 0 96 255 0.22224995
-0.89387643 0.1659088 0.12925732 0 232 255 0.3553705
-0.54979277 -0.15577675 0.013306597 162 255 94 0.53624403
-0.051008753 -0.13363414 0.018629346 0 0 144 0.015706701
0.7769978 0.03775833 0.010985881 86 255 170 0.46116027
0.678676 -0.029542482 -0.3682492 136 0 0 0.9960685
-0.5983788 -0.03533363 -0.021057058 0 0 168 0.04308229
-0.04979517 0.09543562 0.21273929 0 0 128 0.0
0.6053924 -0.019024732 -0.3682492 128 0 0 1.0
-0.5884359 -0.26284912 -0.29009002 255 152 0 0.725547
0.18870649 0.24249248 0.27077854 0 0 128 0.0
0.6094803 -0.15833166 -0.1119057 0 224 255 0.34619662
-0.44289067 0.18211123 0.13470781 0 0 128 0.0
0.78095794 -0.050450236 0.072240055 128 0 0 1.0
-0.41964093 0.30487508 0.018501598 0 0 128 0.0
0.021508351 -0.1299295 -0.35868955 0 0 128 0.0
-0.586179 0.30257568 0.07594469 0 184 255 0.3069205
-0.040916827 -0.074104525 0.056761507 0 4 255 0.13127391
0.7030542 -0.20872745 -0.34180582 128 0 0 1.0
0.72966796 0.12937346 -0.32260135 128 0 0 1.0
-0.95666355 0.07171746 -0.043455176 128 0 0 1.0
-0.39428335 -0.0999092 -0.29999033 174 255 82 0.5473149
0.50834805 -0.0057178643 -0.10960627 0 20 255 0.14865674
0.5882745 -0.19869938 0.36907902 150 255 106 0.52181935
0.12515289 0.28062466 -0.09059342 0 0 128 0.0
-0.12742211 0.13005477 -0.096533604 0 0 128 0.0
-0.123121336 0.12909667 0.19193798 0 0 128 0.0
0.63711596 -0.26915124 0.36230844 0 104 255 0.22956428
0.8257329 0.060688727 -0.17226565 128 0 0 1.0
0.15523705 0.2655719 0.21474063 0 0 128 0.0
0.14816846 -0.02668949 0.21925433 0 56 255 0.1819954
-0.94484705 -0.06213899 -0.29709473 0 232 255 0.35296032
-0.8780572 -0.18402989 0.08473787 6 255 250 0.38401368
-0.84746206 -0.01121094 0.35743284 128 0 0 1.0
-0.94078046 0.13018252 0.15346518 128 0 0 1.0
-0.58224016 -0.036440756 0.3475751 2 255 254 0.37664092
0.53623927 -0.0067185415 -0.06862113 128 0 0 1.0
-0.9707369 0.002010764 0.002022374 128 0 0 1.0
0.16537157 -0.07091088 -0.26121938 0 0 128 0.0
-0.43569434 0.023323046 0.1179518 0 0 204 0.075199045
-0.64728415 -0.14921913 -0.36818537 255 84 0 0.79507184
0.5335353 0.0114213815 -0.21627414 0 16 255 0.14362714
-0.5774072 -0.26631957 0.31719288 255 216 0 0.6655747
0.8761286 -0.10376287 0.021950739 128 0 0 1.0
-0.55079347 -0.116984576 0.27876264 0 152 255 0.27529022
0.603242 -0.15079466 0.3419543 128 0 0 1.0
-0.54998434 -0.2626575 -0.36569428 128 0 0 1.0
0.6246182 -0.06942051 -0.31583083 0 172 255 0.29692966
-0.044578876 -0.086304255 -0.20739579 0 84 255 0.2078771
0.086892985 -0.005441082 0.030403262 0 0 128 0.0
0.7322654 -0.21424182 0.37714827 0 248 255 0.3686617
0.7295189 -0.03765435 0.2025622 128 0 0 1.0
0.6855743 -0.2222898 0.30392855 130 255 126 0.5042718
-0.5908843 -0.22484472 0.28346792 255 232 0 0.65041816
-0.32700384 -0.021899017 0.012795614 0 0 128 0.0
-0.9465503 -0.11247089 0.09459559 164 0 0 0.9679588
-0.35598087 -0.0071230703 -0.14720617 0 0 128 0.0
-0.42794442 -0.10335834 0.3432956 126 255 130 0.5014353
0.8598836 0.06332881 -0.25406563 128 0 0 1.0
-0.5138323 -0.019003443 -0.28864223 0 0 188 0.060706023
0.3212429 0.015573124 -0.34640467 128 0 0 1.0
0.17273824 -0.13144115 0.0051521496 0 0 128 0.0
0.26092553 0.0418462 -0.17058367 0 0 128 0.0
0.6655608 -0.044211973 -0.32534787 0 92 255 0.21650931
-0.9183398 -0.13646582 0.2953696 128 0 0 1.0
-0.61822194 -0.18916103 -0.26183686 255 152 0 0.72661585
0.6300261 -0.022665493 0.14569396 255 200 0 0.67903095
0.62225485 -0.060520872 -0.025208801 242 255 14 0.61448514
-0.9243651 0.14534171 -0.075327784 128 0 0 1.0
0.5335353 0.0114213815 -0.21627414 130 255 126 0.50476116
-0.6356806 -0.103699 0.34634024 255 36 0 0.8405852
-0.0022098082 -0.012509691 -0.061105404 0 0 132 0.007736305
0.528681 -0.024241025 0.29473087 128 0 0 1.0
-0.088778965 0.03249946 0.23641488 0 0 128 0.0
-0.5448107 -0.01723629 0.34108135 0 56 255 0.18177843
0.76407415 0.12270938 0.110734165 128 0 0 1.0
-0.6645725 0.012784004 0.36420336 0 72 255 0.1998032
-0.5771091 0.30234146 -0.11448191 0 168 255 0.29030964
0.81372476 0.050703257 0.12108159 128 0 0 1.0
-0.2765229 -0.049002446 -0.1225299 0 36 255 0.16105288
-0.5675281 -0.07140057 0.3709952 128 0 0 1.0
0.04109606 0.041824915 0.35743284 0 0 220 0.0920013
0.004582018 0.30004203 0.19436516 0 0 128 0.0
0.21955714 0.05719701 0.22625907 26 255 230 0.40066227
0.87421244 -0.059456322 -0.17603417 128 0 0 1.0
0.60466856 0.1386989 0.23590387 255 56 0 0.8219246
-0.5501547 -0.07244382 -0.31583083 0 136 255 0.26208174
0.81176597 -0.018002763 0.07485885 152 0 0 0.9798954
-0.0030614485 0.06464885 0.08412043 0 0 196 0.068926126
-0.4917322 -0.003950712 0.27056563 0 76 255 0.20058392
-0.41261488 -0.018194385 -0.05561233 0 0 128 0.0
-0.60123175 0.0011378338 -0.28723702 0 0 220 0.09068536
-0.43179807 0.19328901 -0.17066884 0 0 128 0.0
-0.60602224 -0.016320776 -0.25828123 0 0 192 0.064278685
-0.64328146 -0.15720326 0.30143753 0 252 255 0.3756073
-0.47352841 -0.057029154 0.26647773 0 188 255 0.3121208
0.7952655 -0.046788182 -0.34930024 208 0 0 0.9225207
0.7335855 -0.18460475 -0.10771138 128 0 0 1.0
-0.47552976 0.21145022 -0.22811192 0 0 128 0.0
0.5121166 -0.15677743 -0.10771138 0 0 232 0.102091655
-0.25510415 0.30677 -0.09883304 0 0 160 0.033939406
0.5168006 -0.11396126 0.37250686 255 168 0 0.7134295
0.49146432 -0.0450849 0.16557975 0 188 255 0.31096616
0.024851039 0.30236277 0.093360715 0 0 140 0.013006029
-0.18092637 -0.051195417 0.19907048 0 0 216 0.087422594
-0.3519356 -0.04798048 0.16485587 128 0 0 1.0
-0.17439003 -0.04772498 -0.24037552 0 0 204 0.07615018
-0.5309715 0.29906264 -0.1879997 0 0 140 0.012394227
-0.2715621 -0.1696159 0.3454247 255 144 0 0.7363455
0.055914592 0.08110679 0.35743284 54 255 202 0.4307302
-0.49354196 -0.23040166 0.34502017 128 0 0 1.0
0.52127177 -0.16214275 -0.31625664 154 255 102 0.5261171
-0.6805833 0.06658633 0.35743284 0 108 255 0.23156804
-0.13568301 -0.10376287 0.3787877 0 160 255 0.2839966
-0.9386301 0.13337617 -0.116270356 128 0 0 1.0
-0.10668469 -0.13721101 -0.35423976 0 52 255 0.17926806
-0.51977247 -0.17136176 0.013583382 128 0 0 1.0
0.07190412 -0.04568105 0.2982226 0 56 255 0.18193254
-0.94484705 -0.06213899 -0.29709473 0 232 255 0.35669896
0.035539113 -0.10035631 -0.078414984 0 216 255 0.34064895
0.24429724 0.046296023 0.24663454 46 255 210 0.4225713
0.60745764 0.056089878 -0.023399066 54 255 202 0.43136927
-0.43726987 -0.12545839 -0.04358292 0 0 128 0.0
-0.95736617 -0.02049381 0.26106983 128 0 0 1.0
0.025000077 -0.029648935 -0.2780819 110 255 146 0.48452362
-0.008597104 0.031179417 -0.2870241 0 0 152 0.025752567
0.64725053 -0.18364666 -0.10771138 202 255 54 0.5750244
-0.92357737 -0.14510997 0.04479597 170 255 86 0.5450807
-0.48645207 -0.11051211 -0.23369016 0 0 128 0.0
0.030620897 0.2996801 -0.17083916 0 0 232 0.10408649
0.22583796 0.111744516 0.25036046 0 244 255 0.3660721
-0.96865034 -0.020642847 -0.05265288 186 255 70 0.56008315
0.04729174 -0.13216504 0.08778248 0 0 132 0.0043304753
-0.074492715 -0.0073998524 0.284937 0 92 255 0.21627852
-0.9047774 0.16152285 0.012029138 128 0 0 1.0
0.37308645 0.15590203 0.18397516 128 0 0 1.0
0.681529 -0.18300793 0.33475792 128 0 0 1.0
0.54724675 -0.050663147 -0.31314814 210 255 46 0.58308446
-0.7136482 -0.00993348 0.35743284 255 164 0 0.7152484
0.16264631 -0.005441082 0.042411383 0 0 128 0.0
0.75600487 0.13160901 -0.19227919 128 0 0 1.0
0.7555365 -0.043466784 -0.09155151 128 0 0 1.0
0.560362 0.13925248 -0.2912397 6 255 250 0.38091144
0.5805032 -0.21530636 -0.35611337 128 0 0 1.0
0.5754573 -0.2503513 -0.37133643 255 180 0 0.69954664
-0.57838655 -0.03533363 -0.14258602 0 0 188 0.061018467
-0.5286934 -0.08234414 0.33631217 0 112 255 0.23861676
-0.5782162 -0.06390614 0.32811514 128 0 0 1.0
-0.9577281 0.054322723 -0.15546706 128 0 0 1.0
-0.90367025 0.0671399 0.35385594 128 0 0 1.0
0.7327551 -0.1618447 -0.26298657 128 0 0 1.0
-0.0705113 -0.19416441 0.18855272 0 0 128 0.0
-0.29696226 -0.020962212 -0.074965835 0 0 128 0.0
0.08748913 -0.11170441 0.08814442 0 0 128 0.0
-0.51977247 -0.17136176 0.013583382 0 72 255 0.19655666
0.8116595 -0.074871 0.05382335 128 0 0 1.0
-0.69274044 0.20214605 0.29428375 128 0 0 1.0
-0.6037441 -0.0396557 0.30047944 200 0 0 0.9311508
0.2694845 0.21391997 0.13151416 0 0 128 0.0
-0.06574211 -0.06631202 0.056761507 0 0 192 0.06293168
-0.44810697 0.18441066 -0.23850192 0 0 128 0.0
-0.008192577 0.017829968 -0.24031165 0 144 255 0.2687299
0.7393553 -0.06548167 -0.017905992 255 40 0 0.83729726
-0.6909946 0.043102372 -0.34640467 128 0 0 1.0
0.53702706 0.033649176 0.08516368 0 196 255 0.31992978
0.26092553 0.0418462 -0.17058367 0 0 128 0.0
0.6733107 -0.21911743 -0.30867705 128 0 0 1.0
-0.95542866 0.09126259 0.051161975 252 0 0 0.8816296
0.69038606 -0.24632733 -0.26060197 18 255 238 0.39566287
-0.8295989 -0.015618175 -0.17978138 214 255 42 0.5860649
0.288838 0.20210348 -0.20462796 0 0 128 0.0
0.67064935 0.13633563 -0.14077628 0 36 255 0.1617678
-0.43961188 -0.13635936 -0.23369016 0 0 216 0.08640039
-0.055735353 -0.12190279 -0.3636078 0 40 255 0.16633956
0.52572155 -0.11057598 0.27363148 94 255 162 0.46955395
0.8241361 -0.17095722 -0.31344622 128 0 0 1.0
0.5643434 -0.022665493 -0.11045791 255 188 0 0.6937933
-0.336819 0.30596092 0.10817925 0 0 128 0.0
-0.95542866 0.09126259 0.051161975 128 0 0 1.0
0.7210238 -0.024283605 0.1975801 255 64 0 0.8140378
-0.111709364 0.09185874 -0.18408217 0 0 128 0.0
0.6119075 -0.043424208 -0.24201493 0 108 255 0.23229337
-0.36192104 0.3018092 -0.20447893 0 0 128 0.0
-0.13087125 0.13891183 -0.1499314 0 0 128 0.0
-0.6006143 -0.14449254 0.32811514 255 156 0 0.72194487
0.7100802 -0.028584387 -0.37133643 128 0 0 1.0
0.8346751 0.050703257 -0.048799213 128 0 0 1.0
0.023232924 0.30072334 -0.06351128 0 0 156 0.02795585
-0.22325285 -0.018875694 -0.03432134 0 64 255 0.19009848
-0.55064434 -0.017725982 -0.32517755 0 240 255 0.36119223
-0.07455659 0.14766242 -0.2652647 0 0 128 0.0
0.65333974 -0.23568183 -0.26752156 128 0 0 1.0
-0.75950897 0.25858846 0.20266865 128 0 0 1.0
-0.41086903 -0.022388708 0.15523234 0 0 180 0.053641587
0.15029754 -0.046852056 0.07832928 0 0 128 0.0
0.04629106 0.30100012 -0.115461305 0 4 255 0.13024794
0.84678966 -0.013723276 0.34857577 128 0 0 1.0
0.7151688 -0.06037183 -0.33522692 128 0 0 1.0
0.07914306 -0.052898698 0.24171633 0 0 136 0.008746367
-0.08675632 0.0068864007 0.1945355 0 0 128 0.0
0.5241886 -0.054687142 -0.11318316 0 52 255 0.17908533
-0.87392676 -0.18409377 0.2217028 194 255 62 0.5659224
-0.043280125 -0.08964694 -0.17863166 0 0 128 0.0
-0.6969348 -0.1925037 -0.23049651 42 255 214 0.4188324
-0.9145713 -0.12313767 0.32930744 0 216 255 0.33731702
-0.04213041 -0.09171217 -0.1584691 0 128 255 0.25192893
0.4350858 0.063137196 -0.0495444 0 0 148 0.021768743
0.6083306 -0.04463779 -0.019630563 0 220 255 0.34363115
-0.67394054 -0.055709112 -0.32187745 66 255 190 0.4419433
0.31249228 0.18881789 0.23764975 90 255 166 0.46388546
-0.5272882 -0.017257579 -0.27955097 0 0 200 0.0728107
-0.57678974 -0.06859016 -0.31804508 0 20 255 0.14701498
-0.41557437 -0.016043995 0.2908772 0 52 255 0.17764802
0.065985225 -0.18969329 -0.28304267 0 0 228 0.0987249
-0.54979277 -0.15577675 0.013306597 0 88 255 0.21443921
0.6989024 0.123411976 0.3414859 128 0 0 1.0
0.7494898 -0.0070379055 -0.098684 128 0 0 1.0
0.73426676 -0.15615998 -0.34644723 128 0 0 1.0
0.78017014 -0.05726335 -0.0026829343 255 152 0 0.7279217
0.5381129 -0.06852628 0.13032188 255 192 0 0.68819183
-0.87605584 -0.15271084 0.33322498 128 0 0 1.0
0.34581268 0.1734884 -0.010773511 0 0 144 0.017767232
-0.48391843 -0.043296464 0.15495554 0 160 255 0.28320363
0.57200813 -0.031054141 -0.29711604 128 0 0 1.0
-0.48391843 -0.043296464 0.15495554 218 255 38 0.59026796
-0.06738152 -0.027903074 0.056761507 0 0 128 0.0
0.7273259 0.021577183 -0.36277744 255 116 0 0.7627961
-0.019583255 -0.03458845 0.35743284 128 0 0 1.0
0.84774774 -0.0037378022 -0.33601466 128 0 0 1.0
-0.42600694 -0.13687037 0.38053355 0 148 255 0.27132154
0.47323927 -0.09026438 -0.006813386 0 24 255 0.14967823
-0.51979375 -0.15247665 0.06463917 38 255 218 0.4123608
0.38226286 0.15138835 -0.071176045 0 0 128 0.0
-0.10960156 0.07916931 -0.103879005 0 0 136 0.008369592
0.42763397 -0.18445572 -0.3253266 254 255 1 0.6245685
-0.7573799 -0.10097375 -0.34640467 128 0 0 1.0
0.51562965 -0.0048236437 0.34636152 0 0 248 0.12053249
0.16673419 0.26303828 -0.06553393 0 0 128 0.0
0.3786221 0.14287195 -0.2795297 0 0 128 0.0
-0.42973286 -0.15903427 0.2757393 0 196 255 0.32025832
-0.50058925 0.041888785 0.29053655 50 255 206 0.42489463
0.8349306 0.050703257 0.14686497 128 0 0 1.0
-0.55924594 -0.16957332 0.0013836444 0 36 255 0.163794
0.5375168 0.011059435 -0.11480128 0 144 255 0.26846707
0.62738603 -0.04666044 -0.2787845 128 0 0 1.0
0.4849067 0.032648496 -0.08350352 244 0 0 0.88667107
-0.5276075 -0.07851175 0.021375883 255 124 0 0.7559337
-0.7226756 0.28856617 -0.09815172 0 16 255 0.1448263
-0.587201 -0.12818363 -0.3593283 0 12 255 0.14041974
0.67450297 -0.057667878 0.20954564 128 0 0 1.0
-0.07855929 -0.016853051 0.1349633 0 0 180 0.051678274
-0.5286934 -0.08234414 0.33631217 0 0 192 0.06455696
0.8418288 -0.145259 -0.31968448 255 136 0 0.7442412
0.071009904 0.29791293 -0.15346572 0 0 128 0.0
0.6814864 0.13571817 0.17975955 128 0 0 1.0
-0.16563943 -0.043190006 -0.044434562 0 0 128 0.0
-0.6215647 -0.19207789 0.27363148 238 255 18 0.6084556
0.1399714 0.2741522 0.1354743 0 0 128 0.0
-0.6350206 -0.2328927 0.29809484 226 255 30 0.5993952
0.19147432 0.08887799 -0.19125721 0 0 240 0.11163544
0.60745764 0.004672138 0.040516485 0 32 255 0.15824997
0.50027883 -0.012445816 -0.08916693 255 200 0 0.68122625
-0.55701035 -0.09403289 -0.031510934 0 0 168 0.040363744
0.71099573 -0.14244859 0.13892344 128 0 0 1.0
0.7653942 -0.106402956 -0.27484566 128 0 0 1.0
0.21983391 0.09049611 0.30676028 0 0 236 0.10792547
-0.5667617 0.3012769 0.007047048 0 0 188 0.06155826
-0.10589692 0.090432234 -0.07760592 0 0 128 0.0
-0.8261924 0.21398385 0.13577236 102 255 154 0.47628644
0.49125144 0.035458907 0.12108159 0 168 255 0.29110885
0.7750603 -0.1471752 -0.34812924 128 0 0 1.0
0.01989024 0.3008511 -0.02476169 0 0 160 0.033792254
-0.03259205 0.11344779 0.35311076 0 0 128 0.0
0.7209386 -0.059498906 -0.26000583 128 0 0 1.0
-0.48530233 -0.032544512 0.15891567 0 0 184 0.05558974
0.17365377 0.25841814 -0.17128627 0 0 128 0.0
-0.7861653 0.2441319 0.08013902 0 112 255 0.23598327
-0.96865034 -0.020642847 -0.05265288 0 252 255 0.3727832
-0.95666355 0.07171746 -0.043455176 0 236 255 0.35985973
0.7496814 -0.18677643 -0.3640762 128 0 0 1.0
0.19950102 -0.08021504 0.056761507 0 0 128 0.0
-0.6037654 0.30217114 -0.08099119 128 0 0 1.0
0.80991364 -0.019599587 0.059571914 128 0 0 1.0
0.49829876 -0.17945233 0.3705055 0 36 255 0.16459352
-0.77107 -0.192525 -0.23009199 0 28 255 0.15297978
0.7822141 -0.014212969 -0.07209155 255 52 0 0.82453406
-0.86673045 -0.015618175 -0.124105446 128 0 0 1.0
-0.067253776 -0.037952423 -0.095958754 0 216 255 0.33816928
-0.50224996 -0.12539451 -0.037131753 0 0 196 0.06897324
-0.4362692 -0.14985786 0.3685893 255 248 0 0.6333674
0.12726068 -0.14487576 0.3605626 0 0 180 0.05188723
0.5375168 0.011059435 -0.11480128 0 0 252 0.12341817
0.7750603 -0.1471752 -0.34812924 255 204 0 0.6756243
-0.7252731 0.028007062 -0.34640467 128 0 0 1.0
0.4915708 -0.01836471 -0.02842374 0 80 255 0.2049377
-0.094293326 0.23838332 0.15050572 0 68 255 0.1959773
0.03690174 -0.005441082 0.042326216 0 0 128 0.0
0.6246182 -0.06942051 -0.31583083 128 0 0 1.0
-0.6645725 0.012784004 0.36420336 0 144 255 0.268548
0.0033471414 0.3012769 0.15665883 0 0 144 0.016263796
-0.44321007 0.17155091 0.02088619 0 0 128 0.0
0.89494985 -0.057582717 0.19181025 128 0 0 1.0
-0.0218401 0.053045265 0.11641886 0 0 128 0.0
-0.4889218 -0.040954456 -0.07313482 0 0 128 0.0
0.4138374 -0.08562295 0.37135714 0 172 255 0.29763514
-0.68235046 0.3001059 0.08069258 0 32 255 0.15887944
-0.3561512 -0.010572209 -0.058231123 0 0 168 0.040009793
0.67271453 0.13371682 0.3244531 128 0 0 1.0
0.11533774 -0.1318244 0.36854672 0 40 255 0.1679628
-0.5860087 -0.077255584 0.33356565 0 176 255 0.2991355
-0.03946904 0.06377593 0.19651555 0 0 188 0.061447915
0.5275739 -0.02307002 -0.31052935 128 0 0 1.0
-0.7009587 0.019533249 0.35743284 128 0 0 1.0
-0.5686779 0.012933041 -0.28911063 128 0 0 1.0
0.012842922 0.30106398 0.052971713 0 0 136 0.009416811
-0.06663634 -0.042934515 0.13483557 0 0 128 0.0
-0.50697654 0.09181615 0.35743284 0 240 255 0.36132273
-0.55635035 -0.14817588 0.061871346 0 0 232 0.10571214
-0.46707726 0.24689971 0.036045376 0 0 128 0.0
0.783087 -0.07365741 -0.08897531 2 255 254 0.37799808
0.15029754 -0.046852056 0.07832928 0 0 128 0.0
0.63890445 -0.099376924 -0.3332681 130 255 126 0.5046131
-0.95906943 -0.008783766 0.24893397 128 0 0 1.0
0.6172089 -0.10487 -0.17000881 255 236 0 0.6443426
0.55067456 -0.047214 0.3239634 0 96 255 0.2197268
-0.7405387 0.18892434 0.29905295 255 248 0 0.63213
0.27548856 0.10014093 0.35743284 192 0 0 0.9379616
0.649848 0.13524978 0.31881097 0 184 255 0.3087347
-0.35434148 -0.025113955 -0.034172308 0 0 148 0.022483168
-0.28235662 -0.020429937 0.09184906 0 0 180 0.054789294
0.81176597 -0.018002763 0.07485885 128 0 0 1.0
0.6793786 0.13484524 0.270374 0 136 255 0.26188228
0.52550864 -0.11400383 -0.27077907 128 0 0 1.0
0.59889865 0.042719137 -0.032192245 0 144 255 0.26755127
-0.39168584 -0.13197343 -0.29545534 0 0 128 0.0
-0.47431618 0.12703145 0.07202714 0 0 128 0.0
-0.034401786 -0.14002143 -0.28925964 0 0 136 0.010310428
0.31249228 0.18881789 0.23764975 0 0 156 0.028022375
-0.5770239 -0.15822521 0.013093688 0 164 255 0.2864157
0.20533474 0.24389769 0.1919167 0 0 144 0.018640546
-0.039362583 -0.096119404 0.20943919 0 0 128 0.0
-0.643175 -0.2251428 -0.29737154 0 0 220 0.091059394
0.22209075 0.11498075 -0.18425249 0 0 128 0.0
0.59919673 0.083683 0.03874933 128 0 0 1.0
0.45671746 -0.012999382 0.04279462 126 255 130 0.50097257
0.80640066 0.102333896 -0.17965363 184 0 0 0.9473587
-0.95193696 0.101035155 -0.17000881 128 0 0 1.0
0.17407957 -0.06888823 -0.34714985 0 0 128 0.0
0.8473432 -0.14500351 0.32749772 128 0 0 1.0
-0.082093604 -0.11662263 0.056761507 0 0 128 0.0
0.13933268 -0.005441082 -0.025804948 0 0 128 0.0
-0.22325285 -0.018875694 -0.03432134 0 0 128 0.0
0.21040201 -0.09479937 0.056761507 0 36 255 0.16139396
0.22468826 0.123177774 -0.300991 0 144 255 0.2696676
-0.12799697 0.23410383 -0.20907778 0 0 168 0.042870216
-0.07683472 -0.13597614 0.3660131 0 212 255 0.33565664
-0.035530206 -0.11034178 0.0841843 0 0 128 0.0
0.7226206 -0.14651518 -0.107903 128 0 0 1.0
-0.4406977 0.039759688 0.2659242 0 0 128 0.0
-0.0072983545 -0.13572064 0.056761507 0 0 240 0.11022173
-0.44785148 -0.19682579 -0.261773 0 0 232 0.10504963
-0.79555464 0.19737688 0.29453924 122 255 134 0.49527487
-0.56177956 -0.13365541 0.08733537 10 255 246 0.38438734
0.77256924 -0.0755736 -0.19285405 255 236 0 0.646897
0.45940012 0.1368466 -0.3198761 0 0 240 0.11286696
0.26920772 0.10048159 -0.13049273 0 0 128 0.0
0.30946898 0.07450658 0.35743284 0 192 255 0.31494728
-0.07117132 -0.14368346 0.056761507 0 0 220 0.09085894
0.13441446 0.051001333 -0.115993574 0 88 255 0.21254009
0.85085624 0.07806217 0.25849363 148 0 0 0.9818311
-0.08611759 0.004970212 -0.16421767 0 148 255 0.27442303
0.23769705 0.22901528 0.17731108 0 0 240 0.110039756
-0.43726987 -0.064736485 0.008494835 0 140 255 0.26284605
-0.43726987 -0.039889902 0.08661148 0 12 255 0.13742717
0.12587678 -0.113322526 0.025527624 0 0 128 0.0
0.1591546 -0.007059196 -0.03881374 0 0 128 0.0
-0.46707726 0.24689971 0.036045376 0 0 128 0.0
-0.91548675 -0.15347733 -0.22832483 94 255 162 0.46804836
-0.39832866 0.30447057 -0.122785404 0 0 128 0.0
-0.38891804 -0.08377063 -0.26081488 0 0 184 0.05581602
-0.4821087 -0.19410053 0.19068183 128 0 0 1.0
0.6560224 -0.1382117 -0.23041134 0 24 255 0.15124087
0.3106613 0.06750185 -0.34985378 0 92 255 0.21718737
0.12517418 -0.03665367 -0.05840145 0 0 144 0.016985213
-0.5252655 -0.043211292 0.34199688 156 0 0 0.97474635
0.5876145 -0.0019706495 -0.25828123 0 196 255 0.3177825
0.23769705 0.22901528 0.17731108 0 0 164 0.037734795
0.581802 -0.036057524 0.31770384 0 92 255 0.21695061
0.34883603 -0.19009784 0.2887268 0 0 204 0.07735664
-0.54998434 -0.2626575 -0.36569428 0 180 255 0.3055706
-0.5161956 0.015317632 -0.2990748 0 0 248 0.12100407
0.21199884 0.023514662 -0.018821504 0 0 128 0.0
-0.6450912 -0.10525324 -0.34614918 128 0 0 1.0
0.1357984 -0.09995178 0.0078348145 0 0 160 0.034179453
0.6468247 -0.018300839 -0.27752832 0 140 255 0.2661856
0.32437268 0.18115313 0.26530674 2 255 254 0.378691
-0.19614941 0.30274597 0.21616714 0 0 128 0.0
-0.15433392 -0.14770748 -0.045733314 0 0 144 0.016035227
0.2572848 -0.007378562 0.056761507 0 0 128 0.0008088582
-0.65222365 0.0980757 0.35743284 128 0 0 1.0
-0.43550274 0.1954181 0.13100319 0 0 128 0.0
-0.4406977 0.039759688 0.2659242 0 0 156 0.029596094
0.16249728 0.024195975 -0.34640467 0 0 128 0.0
0.5390284 0.13986991 0.30516347 128 0 0 1.0
0.798012 0.11055222 -0.15555222 128 0 0 1.0
-0.47514653 -0.05036507 -0.23369016 0 0 132 0.005045853
0.70861113 0.021492021 -0.23865096 255 204 0 0.67557883
0.5597871 -0.13753037 0.33356565 255 124 0 0.75350654
0.649848 0.13524978 0.31881097 128 0 0 1.0
0.6736726 -0.074828416 -0.3234743 128 0 0 1.0
0.7962023 -0.14757973 0.352323 122 255 134 0.49527457
-0.51757944 -0.0045042774 -0.37133643 0 120 255 0.24508093
0.32435137 0.18494293 0.08769732 0 0 128 0.0
-0.96271014 -0.030415412 -0.18736097 0 140 255 0.2654194
-0.46292552 -0.19921038 0.33186236 246 255 10 0.6175571
-0.49362713 0.2547135 -0.2551089 0 0 128 0.0
0.7393553 -0.06548167 -0.017905992 128 0 0 1.0
0.5379426 0.0065244543 -0.08431258 0 24 255 0.14944637
-0.40595084 -0.13318701 -0.37133643 0 100 255 0.22616927
0.5327689 -0.16791262 -0.31747022 0 76 255 0.20387982
-0.67649543 0.2985091 0.10262229 0 0 255 0.12821005
-0.76363945 0.22643907 -0.2702468 128 0 0 1.0
0.64899635 0.015147305 -0.29532757 0 120 255 0.24441648
-0.5220719 -0.15869361 0.3455312 128 0 0 1.0
-0.7427955 0.27259797 0.1463114 30 255 226 0.40558922
-0.7731991 0.16793144 0.3102946 128 0 0 1.0
0.52680737 -0.149283 -0.31500044 255 20 0 0.85515213
-0.5358471 -0.13687037 0.040814556 26 255 230 0.40338355
0.810595 -0.13740262 -0.34118837 128 0 0 1.0
0.7209386 -0.059498906 -0.26000583 0 124 255 0.24741077
0.62225485 -0.060520872 -0.025208801 0 116 255 0.24153914
-0.5617582 -0.11198119 0.06951481 0 44 255 0.17062238
0.75709075 -0.031820614 0.26809585 18 255 238 0.39394274
-0.44278422 0.16505715 0.25417155 0 0 152 0.023669442
0.5538257 -0.14136276 0.15127221 128 0 0 1.0
0.10873753 0.066799246 0.36022195 0 0 160 0.033102598
0.043970346 0.29652902 0.23388125 0 0 128 0.0
-0.11156032 0.091518074 0.17435165 0 0 200 0.071750425
0.5418388 0.030242614 0.375956 0 152 255 0.27774706
0.26986775 0.06869414 -0.18814874 0 0 128 0.0
0.62225485 -0.060520872 -0.025208801 128 0 0 1.0
-0.4567511 -0.050450236 -0.30418462 0 0 148 0.023276426
0.32884377 0.14055124 0.18314481 0 48 255 0.17640682
-0.77107 -0.192525 -0.23009199 0 116 255 0.24220496
0.84067917 0.050703257 -0.09625683 82 255 174 0.45554492
-0.0882254 0.045636002 -0.07215542 0 0 128 0.0
0.27763894 0.038886756 -0.093382545 0 0 128 0.0
-0.61856264 0.30023366 -0.019289905 0 0 228 0.101747274
-0.867944 0.18717849 0.034384675 128 0 0 1.0
-0.41557437 -0.016043995 0.2908772 82 255 174 0.4572012
0.4459655 0.08517337 0.12248679 0 40 255 0.16747764
-0.39057875 -0.013105837 -0.35528302 0 0 164 0.03881478
-0.58077115 0.30108532 0.00860129 0 0 232 0.10338762
0.3106613 0.06750185 -0.34985378 30 255 226 0.40571454
0.00677499 0.3012769 -0.10164345 0 36 255 0.16083843
-0.1470524 -0.08404741 0.37012225 0 116 255 0.24193926
0.22209075 0.11498075 -0.18425249 0 0 128 0.0
0.11978755 0.2829028 -0.054803275 0 48 255 0.17386644
-0.70687765 0.28792748 -0.2319443 255 200 0 0.68121606
-0.43186197 0.19290575 0.021482337 0 0 128 0.0
0.5507172 -0.20855711 -0.3070802 0 72 255 0.19774926
-0.4565808 -0.19241855 0.355836 74 255 182 0.44801491
0.031919647 -0.06201124 -0.17533156 0 0 228 0.099668615
-0.5272882 -0.017257579 -0.27955097 0 0 136 0.009117489
0.63911736 -0.017534364 0.37776574 128 0 0 1.0
-0.5858171 -0.11943303 -0.0056636725 0 32 255 0.16029374
-0.82708657 0.048382536 0.35743284 128 0 0 1.0
0.7953932 0.11662015 0.021120392 128 0 0 1.0
-0.5834538 -0.10029244 -0.3234743 34 255 222 0.41160297
-0.55083597 -0.06810047 0.3197052 0 44 255 0.17015402
0.7884523 0.12850052 -0.14511964 58 255 198 0.4345026
-0.48555782 -0.1320373 -0.26583955 0 64 255 0.18984817
-0.0072983545 -0.13572064 0.056761507 0 0 128 0.0
0.38679785 0.143681 -0.1773755 0 0 128 0.0
0.8127454 -0.18407248 0.31523407 128 0 0 1.0
-0.08675632 0.0068864007 0.1945355 0 96 255 0.22157812
-0.043940146 -0.09377739 0.113672316 0 0 180 0.051049706
0.09730427 -0.043700986 0.17952535 0 220 255 0.34210896
0.8894568 -0.030713487 -0.23366888 140 0 0 0.98874265
-0.045707297 0.08766441 -0.21141978 0 0 244 0.11530102
0.29603437 0.19974017 -0.15335926 0 0 128 0.0
0.6350082 -0.049449556 -0.32324007 128 0 0 1.0
0.3564795 0.0810642 -0.28813124 128 0 0 1.0
-0.95985717 -0.07303997 0.097022764 128 0 0 1.0
0.7331171 -0.014809117 0.04454048 128 0 0 1.0
0.78095794 -0.050450236 0.072240055 128 0 0 1.0
-0.43186197 0.19290575 0.021482337 0 0 128 0.0
0.686362 0.027921898 -0.1237222 254 255 1 0.62613744
-0.61466634 -0.049343098 -0.2739514 0 0 244 0.11646164
0.46804425 0.0013294532 0.04279462 0 88 255 0.213709
-0.07949609 -0.01572463 -0.12964109 0 0 255 0.1292782
0.7952016 -0.0137445675 0.15020765 128 0 0 1.0
-0.6375755 -0.20229755 -0.37133643 0 32 255 0.15734953
-0.4773821 -0.16063109 0.3303507 94 255 162 0.46907428
-0.6350206 -0.2328927 0.29809484 128 0 0 1.0
0.5030679 -0.05792337 0.36177617 0 164 255 0.28978884
0.7317544 0.04103715 -0.34951314 26 255 230 0.4022562
-0.39130265 0.086685024 0.23085791 0 100 255 0.22538374
0.60745764 0.056089878 -0.023399066 126 255 130 0.4989952
-0.2892975 -0.12303121 -0.0039391024 0 0 128 0.0
-0.09391009 0.19533294 -0.20975909 0 0 128 0.0
-0.3719917 0.3013195 0.22078727 0 0 128 0.0
0.7811708 -0.0699102 -0.03555622 255 200 0 0.6788932
-0.46597013 0.18168542 -0.2099507 0 0 128 0.0
0.78674906 -0.09107344 0.37459338 26 255 230 0.40011698
0.167671 -0.10361383 0.056761507 0 0 136 0.011243739
-0.7541862 0.239384 -0.26330593 128 0 0 1.0
-0.06772218 0.13107674 -0.20222208 0 0 128 0.0
-0.9092911 0.14940828 -0.23579796 128 0 0 1.0
0.3353162 0.060049996 -0.34640467 0 0 144 0.016566182
0.5624272 -0.037590478 -0.27701733 255 152 0 0.7284323
0.7331171 -0.03699433 0.057400238 198 255 58 0.5713187
-0.09953092 0.16742045 -0.14622676 0 0 128 0.0
0.6103958 -0.20366019 -0.31583083 255 200 0 0.6822689
0.5488223 -0.19435602 -0.1551477 134 255 122 0.5071392
0.024127146 -0.063416444 0.20160411 0 0 164 0.03703596
-0.61900973 0.058857705 0.35743284 128 0 0 1.0
-0.39428335 -0.0999092 -0.29999033 0 0 156 0.028482046
-0.086564705 0.16450359 0.22187313 0 0 128 0.0
0.4961058 0.1422758 0.21870077 0 192 255 0.31609178
-0.6133676 0.02385532 -0.36409748 0 172 255 0.2974808
0.15029754 -0.046852056 0.07832928 0 0 128 0.0
0.7226206 -0.14651518 -0.107903 128 0 0 1.0
-0.1903157 0.1616293 0.3159793 0 0 128 0.0
0.55674255 -0.14268279 -0.3179812 0 88 255 0.21226496
-0.19485068 0.30472606 -0.1638983 0 16 255 0.14157082
0.5908507 -0.06030796 -0.21388954 0 192 255 0.3160398
0.509072 0.03701315 -0.11448191 0 8 255 0.13367988
0.52812743 0.14380875 -0.08133184 0 148 255 0.27119675
-0.43790862 -0.07623362 -0.31617147 0 0 248 0.121555686
0.20863485 0.0638185 -0.18748872 0 0 128 0.0
0.28996643 0.20367901 0.07443303 0 64 255 0.19084676
-0.96865034 -0.020642847 -0.05265288 128 0 0 1.0
0.29628986 0.035607945 -0.08099119 0 0 128 0.0
0.5908507 -0.06030796 -0.21388954 0 28 255 0.15395734
-0.0679138 -0.14002143 -0.27601665 0 0 128 0.0
0.7295189 -0.03765435 0.2025622 255 40 0 0.8362809
0.40595976 -0.06524747 0.04605214 214 255 42 0.58696985
-0.19719268 -0.013489076 -0.08382289 0 0 128 0.0
-0.57855684 0.03952549 -0.3369302 0 0 224 0.09533022
0.38745785 0.14357455 0.019459693 0 0 164 0.03686641
-0.7022788 0.21766719 0.28598028 128 0 0 1.0
0.662729 -0.2331695 -0.3371431 2 255 254 0.3770115
-0.90367025 0.0671399 0.35385594 128 0 0 1.0
-0.42621985 0.15741369 -0.12363704 0 0 128 0.0
-0.07057518 0.13748533 -0.14516224 0 0 128 0.0
-0.1406864 0.18958437 0.15303935 0 116 255 0.23979421
0.61499465 0.044954687 0.24103501 166 255 90 0.54061073
-0.45800728 0.071589716 -0.26375303 0 0 224 0.09728943
-0.0483048 -0.073103845 0.08497207 0 44 255 0.17135368
0.7252394 -0.060627323 -0.10817978 232 0 0 0.89815795
-0.41604277 -0.013531658 -0.03451296 0 0 128 0.0
0.6189548 0.05960289 0.11716404 128 0 0 1.0
0.04629106 0.30100012 -0.115461305 0 0 180 0.052065108
0.42226863 0.14376616 0.14541718 0 252 255 0.37578842
0.3564795 0.07331428 -0.2184884 0 0 160 0.031829983
-0.523541 -0.11298186 -0.3316713 0 0 236 0.1084388
0.005540113 -0.059605356 0.08082032 0 0 128 0.0
-0.94484705 -0.06213899 -0.29709473 192 0 0 0.93833697
0.39263156 0.14385132 -0.019630563 0 156 255 0.27875835
0.8274787 -0.12652293 0.35125843 0 224 255 0.34808064
-0.95736617 -0.02049381 0.26106983 86 255 170 0.46240118
-0.43241552 -0.22822998 0.31436116 0 0 236 0.10615564
-0.8132048 0.16571717 0.31148687 128 0 0 1.0
-0.60391444 -0.07851175 -0.02325003 0 156 255 0.27997386
