ply
format ascii 1.0
element vertex 935
property float x
property float y
property float z
property uchar red
property uchar green
property uchar blue
property float weight
end_header
-0.21419713 0.5799118 0.25332412 128 0 0 1.0
-0.3155973 0.14743502 0.23920102 0 168 255 0.29344523
-0.20096052 -0.40268046 -0.28097594 128 0 0 1.0
-0.21419713 0.3962109 0.41802636 0 0 128 0.0
-0.16745597 -0.050892632 0.031726595 0 0 184 0.05710635
0.14387657 0.044765607 0.3241209 0 0 128 0.0
-0.21419713 0.21597533 0.2934772 0 0 128 0.0
0.28679982 0.044765607 0.051893804 0 0 252 0.12177299
0.46149498 -0.48987693 0.43156517 128 0 0 1.0
-0.3155973 0.3024868 0.037811007 0 0 128 0.0
-0.19112876 -0.59395665 -0.3470583 128 0 0 1.0
0.49830365 -0.22161883 -0.29937023 10 255 246 0.38658488
0.22396114 -0.050892632 -0.40008536 74 255 182 0.449971
-0.21419713 0.33117622 0.3633472 0 0 128 0.0
0.064114355 0.044765607 -0.07614076 0 116 255 0.24033175
0.48547 0.044765607 -0.27628168 128 0 0 1.0
-0.3155973 0.07953943 0.10737881 54 255 202 0.42872685
-0.21419713 0.17771606 -0.3507855 0 0 128 0.0
0.4685666 -0.050892632 -0.27088225 0 184 255 0.30945042
-0.2516505 0.4593921 -0.41271755 128 0 0 1.0
0.16478921 -0.050892632 -0.32388917 0 0 128 0.0
-0.3155973 0.38033506 0.08368587 0 0 128 0.0
0.55519897 -0.35517368 -0.3721414 255 168 0 0.71173245
-0.23238996 -0.050892632 0.15931793 0 0 240 0.11221722
-0.3155973 -0.019201308 0.31420854 0 0 200 0.07429075
0.4418516 -0.6619933 -0.3277977 128 0 0 1.0
0.49769923 0.044765607 0.14565822 188 0 0 0.94424564
-0.027131684 0.044765607 0.15474455 0 0 128 0.0
-0.21419713 0.25923106 -0.048519146 0 0 216 0.086872675
-0.2161917 0.24776739 0.43156517 0 0 128 0.0
0.4418516 -0.48272473 -0.31222403 128 0 0 1.0
-0.21419713 0.3952036 0.24778366 0 0 216 0.08922574
0.49217895 -0.641121 0.31009853 128 0 0 1.0
0.30946526 0.044765607 -0.09656988 0 0 128 0.0
-0.3155973 -0.07645925 0.33463764 0 228 255 0.3493686
-0.19112876 -0.43298164 -0.37631184 126 255 130 0.50017893
-0.27079022 0.81764716 -0.16394165 128 0 0 1.0
0.52632827 0.044765607 -0.3971439 255 76 0 0.80182606
0.09711524 0.044765607 0.020222627 0 0 128 0.0
-0.3155973 0.41301358 -0.39017302 0 0 128 0.0
0.55519897 -0.0060251346 -0.3138358 0 244 255 0.36556315
-0.21419713 0.292373 0.07026793 0 0 128 0.0
0.08684024 0.044765607 0.32271057 0 64 255 0.1900821
0.09711524 0.044765607 0.020222627 0 0 128 0.0
-0.19112876 -0.66568017 -0.33275387 128 0 0 1.0
-0.1805314 0.044765607 0.3112469 0 20 255 0.14597483
-0.28815702 0.31042475 0.43156517 0 0 128 0.0
-0.3155973 0.21295327 -0.18042196 0 0 128 0.0
0.4418516 -0.4547606 -0.31788534 255 48 0 0.8288355
0.55519897 -0.7532594 -0.35263902 128 0 0 1.0
0.3947679 -0.050892632 -0.0027651698 0 0 248 0.11796274
-0.3155973 -0.75491154 -0.3967611 128 0 0 1.0
-0.19112876 -0.6524436 -0.34897226 128 0 0 1.0
-0.122689195 -0.050892632 0.17646308 0 0 128 0.0
-0.20178656 -0.18186869 0.41925532 0 160 255 0.2855894
-0.23238996 -0.050892632 0.15931793 0 0 228 0.10156471
0.43480015 0.024437223 -0.41271755 128 0 0 1.0
0.55519897 -0.26316208 0.33969456 0 116 255 0.2399086
0.0025650861 0.044765607 0.31751263 0 0 232 0.105861895
0.4369357 -0.34240046 0.31009853 0 0 184 0.055444833
0.5245553 0.044765607 0.23130336 128 0 0 1.0
0.37826747 -0.020692194 -0.41271755 128 0 0 1.0
-0.20638008 -0.68181795 0.43156517 128 0 0 1.0
-0.0039222664 -0.050892632 0.00470939 0 0 128 0.0
-0.21419713 0.3828333 0.4006797 0 0 128 0.0
0.41696998 -0.050892632 -0.40719727 128 0 0 1.0
0.19652084 -0.050892632 -0.2225293 0 0 128 0.0
0.4240416 -0.050892632 0.37869927 255 164 0 0.7144206
0.007964498 -0.050892632 0.4102294 0 196 255 0.32127762
-0.20178656 -0.2787559 0.3515209 0 0 240 0.110545896
-0.20638008 -0.68181795 0.43156517 128 0 0 1.0
-0.21419713 0.13574973 -0.34969756 0 0 128 0.0
-0.3155973 0.25667238 -0.22198534 0 0 128 0.0
-0.07490036 0.044765607 0.21603191 0 0 236 0.10645255
-0.23067744 -0.5604521 0.43156517 128 0 0 1.0
0.44715026 -0.12539648 0.43156517 42 255 214 0.4183648
0.28307262 -0.020792928 0.43156517 0 0 200 0.07348724
0.15064597 -0.050892632 -0.1725646 0 0 128 0.0
0.010442582 -0.050892632 -0.1725646 0 0 128 0.0
-0.3155973 0.3024868 0.037811007 0 0 128 0.0
0.47118574 -0.7082711 0.31009853 128 0 0 1.0
0.2396557 0.044765607 -0.25698078 0 152 255 0.27795985
0.43373233 -0.38436678 0.35428104 0 224 255 0.34760168
0.26939276 0.044765607 -0.32685077 22 255 234 0.3987782
-0.21419713 0.7463467 -0.052306794 128 0 0 1.0
-0.21419713 0.5585962 -0.22480594 190 255 66 0.5627681
-0.21419713 0.36175945 -0.34836784 0 0 132 0.00705241
-0.1658845 0.044765607 0.2793138 0 96 255 0.22151457
-0.27262363 -0.7560801 -0.28097594 128 0 0 1.0
-0.061522722 -0.050892632 -0.12874475 0 168 255 0.29335418
-0.21419713 0.7529146 0.04226351 128 0 0 1.0
0.4418516 -0.73972064 -0.3037824 128 0 0 1.0
0.4043579 -0.050892632 -0.08347429 0 0 240 0.110727556
0.26556483 0.044765607 -0.097013116 0 0 128 0.0
0.55519897 -0.20401031 0.36733633 128 0 0 1.0
0.55114937 -0.2296978 -0.41271755 255 20 0 0.8555425
0.04306067 0.044765607 0.119587936 0 0 128 0.0
-0.19112876 -0.11485955 -0.32187447 0 0 236 0.10945577
-0.3155973 -0.7328505 0.42169312 128 0 0 1.0
-0.21419713 0.19198018 -0.23336843 0 0 128 0.0
-0.20531228 -0.24440515 0.29426295 0 164 255 0.2900119
-0.3155973 -0.050207634 0.045648213 0 0 128 0.0
0.33980674 0.044765607 -0.27563697 0 180 255 0.30315855
-0.29208568 -0.056231607 -0.41271755 0 0 188 0.060007736
-0.21419713 0.6259881 -0.28109682 128 0 0 1.0
-0.3155973 0.66753143 0.053042185 128 0 0 1.0
-0.08166978 0.044765607 0.23908015 0 0 128 0.0
-0.21419713 0.49090213 -0.35412994 255 180 0 0.70051146
-0.03186625 0.044765607 0.42685077 0 220 255 0.344088
0.48730335 -0.49892297 0.43156517 128 0 0 1.0
-0.28581998 0.8127313 -0.18777563 128 0 0 1.0
-0.19112876 -0.23396897 -0.38449153 0 0 128 0.0
0.55519897 -0.61678326 -0.38809785 128 0 0 1.0
-0.047963742 -0.050892632 -0.27704725 0 0 255 0.12878591
-0.3155973 0.7638142 -0.17746033 128 0 0 1.0
0.46320748 -0.5098024 0.31009853 128 0 0 1.0
0.5237292 -0.19538736 0.31009853 138 255 118 0.51056004
-0.20547347 -0.71135354 -0.41271755 128 0 0 1.0
-0.3155973 -0.5439718 -0.28923622 128 0 0 1.0
0.00085258693 0.044765607 -0.16658093 0 76 255 0.20047322
-0.19112876 -0.40588385 -0.35269946 128 0 0 1.0
-0.3155973 0.66805524 -0.38638535 128 0 0 1.0
-0.3155973 -0.51175666 0.33792162 128 0 0 1.0
-0.3057655 0.8215355 0.16391145 128 0 0 1.0
0.39823323 0.044765607 -0.34588975 255 52 0 0.8248116
-0.21419713 0.6604598 0.07798425 128 0 0 1.0
0.46768013 -0.24204797 -0.41271755 128 0 0 1.0
0.16813363 -0.050892632 0.33123282 34 255 222 0.40922558
-0.19886523 -0.050892632 0.019477185 0 68 255 0.19450018
-0.21419713 0.3524314 0.009927479 0 0 164 0.035719566
-0.2948458 0.47464347 -0.41271755 178 255 78 0.55279
-0.03720522 -0.050892632 -0.18743312 128 0 0 1.0
-0.29690084 0.5061333 -0.41271755 128 0 0 1.0
0.43373233 -0.70589375 0.33320722 128 0 0 1.0
-0.21419713 0.79627115 -0.07053988 128 0 0 1.0
0.45464498 -0.7267258 0.35228646 128 0 0 1.0
-0.21419713 0.20974988 -0.27176872 0 0 128 0.0
0.4418516 -0.2921134 -0.32362726 255 108 0 0.7694421
0.3399679 0.03513531 0.43156517 0 0 132 0.007678963
0.10656421 -0.050892632 -0.06161473 0 52 255 0.17738324
-0.3155973 0.42794254 -0.288793 58 255 198 0.43423262
0.050192736 0.044765607 -0.35324347 0 0 236 0.10844773
0.15427245 -0.050892632 0.07318925 0 0 128 0.0
-0.3155973 -0.2716037 -0.39194596 0 0 128 0.0
-0.21113479 0.044765607 -0.26471725 0 0 128 0.0
0.030670231 0.044765607 0.2873525 255 20 0 0.8560957
0.41572085 -0.019100577 -0.41271755 128 0 0 1.0
-0.21419713 0.11729502 0.40267426 0 0 128 0.0
0.43373233 -0.057259105 0.3688675 246 255 10 0.6182352
0.0067959656 -0.049865134 -0.41271755 0 0 255 0.12647831
-0.3155973 -0.14713514 -0.3344664 0 0 176 0.04765484
0.07537656 -0.050892632 0.1498891 0 0 220 0.090624645
0.55290216 -0.21007456 0.43156517 128 0 0 1.0
0.40472057 0.044765607 -0.31401712 182 255 74 0.5534997
0.55519897 -0.70232767 0.39667046 128 0 0 1.0
-0.20178656 -0.5327902 0.32323444 128 0 0 1.0
0.55519897 -0.33718237 -0.32588372 66 255 190 0.44133914
-0.21419713 0.83235455 0.034647923 128 0 0 1.0
-0.3155973 0.4192793 0.23686396 0 168 255 0.29279733
0.5319694 -0.20330514 0.43156517 0 124 255 0.24955872
0.3435138 -0.050892632 -0.2353227 0 116 255 0.24063718
0.07575936 -0.050892632 -0.40830538 0 0 128 0.0
-0.2620061 -0.08222132 0.43156517 0 40 255 0.16584331
0.37272707 0.044765607 -0.3391808 0 148 255 0.27302712
0.21074466 -0.050892632 0.17245382 0 0 148 0.023116648
-0.3155973 0.6283252 -0.36879697 128 0 0 1.0
-0.24901128 0.76939493 0.34579912 128 0 0 1.0
-0.21590964 -0.38456827 -0.28097594 0 172 255 0.29499447
0.55519897 -0.68937314 -0.3160721 128 0 0 1.0
0.27033967 0.044765607 0.20799322 140 0 0 0.98854816
-0.2421411 0.10903473 -0.41271755 0 0 128 0.0
-0.3155973 0.42745903 -0.071527086 0 156 255 0.27977803
-0.24349096 -0.5455231 -0.28097594 128 0 0 1.0
-0.20178656 -0.18873882 0.43132338 0 148 255 0.27440745
-0.21419713 0.11729502 0.40267426 0 0 196 0.070471294
0.3235682 -0.042652488 0.43156517 190 255 66 0.56466156
0.04138847 -0.050892632 0.28048235 0 0 128 0.0
-0.1580876 -0.050892632 -0.116132684 0 0 232 0.1048343
0.46864718 -0.11147484 0.31009853 0 220 255 0.3426136
-0.3155973 0.10325252 0.4299131 128 0 0 1.0
-0.3155973 0.69952494 0.4086781 128 0 0 1.0
-0.12536874 0.044765607 0.3422331 0 208 255 0.33173224
-0.31021804 0.77138954 -0.32173344 128 0 0 1.0
0.4418516 -0.59853005 -0.3743374 128 0 0 1.0
-0.3155973 -0.54904884 -0.3993399 128 0 0 1.0
-0.30832425 0.8250814 0.1409841 128 0 0 1.0
0.43373233 -0.09225455 0.40744913 0 16 255 0.1431619
-0.3155973 0.13018914 -0.07730929 0 0 128 0.0
0.51933724 0.044765607 0.16129233 0 212 255 0.33598384
-0.27419505 0.3553527 0.43156517 0 0 128 0.0
0.43373233 -0.057259105 0.3688675 202 255 54 0.5749228
0.3346289 0.044765607 -0.22490667 0 0 128 0.0
-0.27751935 -0.19087441 0.43156517 128 0 0 1.0
-0.2757061 0.73274744 -0.40739876 128 0 0 1.0
-0.21419713 0.5833167 -0.2328849 128 0 0 1.0
-0.3155973 0.69122434 0.117774695 128 0 0 1.0
0.2532147 0.044765607 -0.09802047 0 0 128 0.0
-0.3155973 0.45282418 0.10953455 255 24 0 0.85356116
-0.28737125 -0.44305518 -0.41271755 128 0 0 1.0
-0.28980905 -0.7580545 0.43156517 128 0 0 1.0
-0.3155973 0.40612328 0.0077314493 0 160 255 0.28577158
-0.3155973 -0.6753105 0.339755 128 0 0 1.0
-0.3155973 -0.7686518 -0.31985977 128 0 0 1.0
-0.3155973 0.3772324 -0.3485089 0 0 200 0.07135293
-0.3155973 -0.4540756 0.3439859 255 60 0 0.81822175
0.523689 0.044765607 -0.3343052 128 0 0 1.0
-0.07828507 0.044765607 -0.17532475 0 0 168 0.04121715
-0.21419713 0.3270662 0.10147572 0 0 140 0.011803012
-0.3155973 0.5181812 -0.012395465 128 0 0 1.0
0.04948759 -0.050892632 -0.27178887 0 0 128 0.0
-0.21419713 0.05359002 0.10733852 128 0 0 1.0
-0.21419713 0.5799118 0.25332412 128 0 0 1.0
-0.25592172 0.74622583 0.39808074 128 0 0 1.0
-0.16793948 0.044765607 0.08402837 0 132 255 0.2549604
-0.3155973 0.5919195 -0.12550105 128 0 0 1.0
-0.3155973 0.2507693 -0.3993399 0 0 128 0.0
0.55519897 -0.66515636 -0.36875668 128 0 0 1.0
-0.3155973 0.6402523 0.2901328 128 0 0 1.0
0.4680226 -0.07095911 0.31009853 0 96 255 0.22226903
-0.21419713 0.6356991 -0.074811056 128 0 0 1.0
-0.3155973 0.10023046 0.017684096 0 0 128 0.0
0.4149553 0.044765607 -0.13168623 0 0 128 0.0
0.42960218 0.044765607 -0.25442213 0 104 255 0.22964564
-0.21419713 0.34882504 0.3115491 0 0 128 0.0
0.1775423 -0.050892632 0.27252427 0 0 144 0.019282276
0.49185658 -0.3181837 -0.29937023 255 224 0 0.6549844
-0.3077198 -0.49793574 0.43156517 128 0 0 1.0
-0.017783452 0.044765607 0.029530568 0 0 128 0.0
0.4087097 -0.050892632 -0.28345403 66 255 190 0.44267112
-0.30415377 -0.76000875 0.4021706 128 0 0 1.0
-0.29994303 -0.526041 0.29426295 128 0 0 1.0
-0.3155973 -0.55996853 0.41846958 128 0 0 1.0
-0.3155973 0.71799976 -0.018500024 128 0 0 1.0
-0.3155973 0.14255944 0.08223528 0 0 128 0.0
-0.21419713 0.17830034 0.12186455 0 0 240 0.11102238
0.2129004 0.044765607 -0.18783608 0 0 128 0.0
-0.3155973 0.38869607 0.0745391 0 0 168 0.040626153
-0.21419713 0.3083899 -0.334688 0 0 128 0.0
-0.3155973 0.60356444 -0.08774547 128 0 0 1.0
0.5288466 -0.065116465 0.43156517 146 255 110 0.5205939
-0.08366433 0.012026632 0.43156517 0 0 240 0.11237676
0.1604576 -0.04772955 -0.41271755 0 160 255 0.28311425
-0.23238996 -0.050892632 0.15931793 0 0 156 0.028627718
0.55519897 -0.13931808 -0.38080463 128 0 0 1.0
0.55519897 -0.49831858 -0.412093 128 0 0 1.0
-0.3155973 0.20463254 -0.07082194 0 0 128 0.0
-0.3155973 0.76663476 -0.09330606 128 0 0 1.0
-0.17853686 0.044765607 0.12611558 0 0 160 0.033123437
-0.22406921 0.6104548 -0.41271755 128 0 0 1.0
-0.3155973 0.2477271 0.034990426 0 0 128 0.0
0.5053954 -0.76728183 -0.3887627 128 0 0 1.0
-0.21419713 0.58583504 -0.27049947 128 0 0 1.0
-0.3155973 -0.27565324 -0.40542433 0 68 255 0.19578911
0.55519897 -0.0281869 0.26394162 114 255 142 0.49003562
-0.20384155 -0.43910637 0.29426295 128 0 0 1.0
0.22776893 -0.050892632 0.26571456 0 0 128 0.0
-0.19112876 -0.11485955 -0.32187447 146 255 110 0.5200941
0.33487073 -0.050892632 0.031625863 0 0 164 0.03770659
-0.21891154 0.677202 -0.41271755 128 0 0 1.0
-0.3155973 0.5356084 0.2746397 128 0 0 1.0
-0.27250275 -0.458649 -0.41271755 128 0 0 1.0
-0.3155973 0.63866067 -0.017734436 128 0 0 1.0
-0.277882 0.77572113 0.32927853 128 0 0 1.0
0.55519897 -0.68937314 -0.3160721 128 0 0 1.0
-0.2521139 0.41591474 0.43156517 0 196 255 0.31965488
-0.03186625 0.044765607 0.42685077 0 0 236 0.10880739
-0.0646858 0.044765607 0.37068072 0 40 255 0.1671022
-0.3155973 0.5118953 -0.18987094 128 0 0 1.0
0.056821123 -0.050892632 0.38953838 0 60 255 0.18634509
0.550827 0.044765607 0.31434956 255 136 0 0.74310666
0.43373233 -0.054176606 0.37994838 78 255 178 0.452558
0.012014056 -0.050892632 -0.3283618 0 0 152 0.024207333
0.55519897 -0.49831858 -0.412093 128 0 0 1.0
-0.19112876 -0.673054 -0.32564196 128 0 0 1.0
0.47201174 -0.30168325 -0.29937023 90 255 166 0.46525484
-0.3155973 0.5213242 0.3114887 128 0 0 1.0
0.46864718 -0.11147484 0.31009853 128 0 0 1.0
-0.23498891 -0.3768721 -0.41271755 0 0 164 0.03911747
-0.3155973 -0.10621647 -0.4094336 0 0 128 0.0
-0.3155973 -0.2500665 0.2978894 206 255 50 0.5783731
0.43373233 -0.4011896 0.39121062 0 64 255 0.18871681
-0.21419713 0.4217977 -0.3886418 30 255 226 0.40525883
-0.3155973 0.48354846 0.006180125 128 0 0 1.0
-0.21419713 0.6220394 0.35685986 128 0 0 1.0
0.13761084 -0.007918956 0.43156517 0 200 255 0.32240784
0.55519897 -0.037716463 -0.3604158 218 255 38 0.5891016
0.40258497 0.044765607 -0.060103707 0 0 128 0.0
0.47239453 -0.30424193 -0.41271755 255 32 0 0.84459406
0.13557598 0.044765607 0.078024544 0 0 128 0.0005959234
0.46300602 -0.050892632 0.06372013 0 96 255 0.21967952
0.55519897 -0.43296152 0.40424573 128 0 0 1.0
0.22277246 -0.006911604 0.43156517 0 0 176 0.050554875
-0.18891257 0.044765607 0.23204882 0 36 255 0.16292445
0.46393278 0.044765607 0.10328896 255 64 0 0.81499445
-0.2091805 -0.52332103 -0.28097594 128 0 0 1.0
-0.21419713 0.24154195 -0.32314372 0 0 128 0.0
-0.3155973 0.42224094 0.17573778 34 255 222 0.40824592
-0.3155973 0.7201152 0.14668572 128 0 0 1.0
-0.31410643 -0.77350724 -0.3713355 128 0 0 1.0
0.33319852 0.044765607 0.40166694 0 0 128 0.0
-0.17249273 0.044765607 -0.37981743 0 0 128 0.0
-0.2595482 0.2062846 -0.41271755 0 0 128 0.0
0.37498352 -0.007898811 -0.41271755 102 255 154 0.47823977
0.045256704 -0.050892632 -0.29701298 0 44 255 0.17061555
-0.21419713 0.42983636 0.34243456 0 0 184 0.057370834
0.55519897 -0.6015722 0.34666544 128 0 0 1.0
-0.3155973 0.4192793 0.23686396 26 255 230 0.40148598
0.5453873 0.044765607 -0.19188564 0 84 255 0.21106301
-0.21419713 0.38418314 0.1410244 0 0 128 0.0
0.43373233 -0.31139416 0.35756502 0 68 255 0.1926857
-0.19112876 -0.11485955 -0.32187447 0 0 128 0.0
-0.19112876 -0.08949441 -0.36730608 0 136 255 0.26236016
0.4418516 -0.36496514 -0.30974594 128 0 0 1.0
0.3018698 0.044765607 0.025944391 0 0 208 0.08045295
0.41404864 0.044765607 0.15661822 0 164 255 0.28664845
-0.30308598 0.4598152 0.43156517 255 144 0 0.73338693
0.47896248 -0.4411815 0.43156517 128 0 0 1.0
0.55519897 -0.007092926 0.026347332 22 255 234 0.3984277
-0.21419713 0.32257345 -0.2545833 0 0 208 0.08205373
-0.25205344 0.8233286 0.15516762 128 0 0 1.0
-0.3155973 0.49120432 -0.4028052 255 208 0 0.67365324
0.35002127 0.044765607 -0.026337232 0 0 128 0.0
0.55519897 -0.20636751 0.39229855 74 255 182 0.4508816
-0.20178656 -0.43020132 0.39620706 128 0 0 1.0
0.5053954 -0.76728183 -0.3887627 128 0 0 1.0
-0.21419713 0.29962593 -0.20552519 0 0 128 0.0
-0.23402186 -0.76000875 0.31447044 128 0 0 1.0
0.19313613 -0.050892632 -0.06483826 0 0 128 0.0
0.51766497 -0.1855153 -0.29937023 255 244 0 0.63812786
-0.21419713 0.5638345 0.099743076 128 0 0 1.0
-0.26005182 -0.4548815 0.43156517 128 0 0 1.0
0.3435138 -0.050892632 -0.2353227 164 0 0 0.9685924
-0.1504317 0.044765607 0.11493396 0 152 255 0.2761689
-0.3155973 0.58083856 0.09903793 128 0 0 1.0
0.21294068 -0.050892632 0.14126617 0 0 188 0.061189976
0.50926363 -0.24593633 0.43156517 0 196 255 0.31986716
0.23572701 0.044765607 -0.37627155 0 124 255 0.24816836
0.55519897 -0.2713821 -0.40522286 186 255 70 0.5599992
0.20617127 0.044765607 0.0024529188 0 232 255 0.35530674
-0.3155973 0.40612328 0.0077314493 0 0 128 0.0
-0.21419713 0.1561587 0.19191587 0 0 128 0.0
-0.3155973 0.45282418 0.10953455 246 255 10 0.61941606
0.16478921 -0.050892632 -0.32388917 0 0 128 0.0
-0.3155973 0.63866067 -0.017734436 128 0 0 1.0
-0.21419713 0.4236915 0.25751472 0 160 255 0.2855819
0.43373233 -0.3923853 0.31541735 0 0 128 0.0
0.52735573 -0.50796896 -0.41271755 128 0 0 1.0
0.45220718 -0.7148592 -0.29937023 128 0 0 1.0
-0.3155973 0.13240533 0.24365352 0 0 244 0.1155275
-0.3155973 0.82568586 0.01155939 128 0 0 1.0
0.47497335 -0.20564221 -0.29937023 0 148 255 0.27342078
0.513293 -0.4145471 -0.41271755 128 0 0 1.0
0.092924654 -0.050892632 -0.1273546 0 0 132 0.0056961924
-0.3155973 0.10266826 0.10929279 0 0 128 0.00040191313
-0.3155973 0.21295327 -0.18042196 0 0 128 0.0
0.55519897 -0.14429441 0.41975898 128 0 0 1.0
0.53132474 0.044765607 0.19935013 50 255 206 0.42738512
0.4418516 -0.11288515 -0.4062705 158 255 98 0.531274
-0.10441581 0.044765607 0.28574073 0 196 255 0.32075942
0.4727169 -0.11344927 -0.29937023 122 255 134 0.49457428
-0.21419713 0.64395934 0.01655586 128 0 0 1.0
-0.22255817 -0.6191002 0.29426295 128 0 0 1.0
-0.3155973 -0.016582193 -0.342908 0 4 255 0.13061605
0.26727733 -0.050892632 0.41343278 0 40 255 0.1661398
0.10473083 -0.050892632 0.393044 0 0 128 0.0
0.14085451 -0.050892632 -0.19581431 0 0 172 0.043460127
-0.3155973 0.39075106 -0.27553624 0 0 128 0.0
-0.21419713 0.11106958 -0.23093064 0 0 164 0.039011046
-0.22636597 -0.18922235 0.43156517 0 0 248 0.118912406
0.4199114 0.044765607 -0.24436875 0 80 255 0.20426926
-0.3155973 0.4035445 -0.38547873 0 0 212 0.085966565
-0.21419713 0.4566118 -0.2892161 255 224 0 0.6551263
-0.277882 0.77572113 0.32927853 128 0 0 1.0
-0.2691382 -0.59115624 -0.28097594 128 0 0 1.0
0.00040935012 0.044765607 -0.21030004 0 0 128 0.0
0.5154085 -0.20409088 0.31009853 128 0 0 1.0
-0.21419713 0.082762964 -0.08043209 0 0 128 0.0
-0.3155973 0.72787184 -0.0405812 128 0 0 1.0
0.47636354 -0.60542035 0.31009853 128 0 0 1.0
-0.3155973 -0.42963722 0.33022544 148 0 0 0.9824434
0.43189892 0.040010903 -0.41271755 234 255 22 0.60580367
0.5225204 -0.13544984 -0.41271755 246 255 10 0.6186769
-0.21419713 0.21597533 0.2934772 0 0 184 0.05786215
-0.3155973 0.16049033 0.08614381 0 0 176 0.04724186
-0.3155973 0.49120432 -0.4028052 255 244 0 0.6372282
-0.3155973 0.7201152 0.14668572 128 0 0 1.0
0.45883557 -0.41704533 0.43156517 128 0 0 1.0
-0.22054346 -0.6779498 -0.28097594 128 0 0 1.0
-0.21419713 0.54344565 0.2532234 128 0 0 1.0
-0.21131612 -0.050892632 0.12055499 0 0 128 0.0
-0.24322905 0.5769905 -0.41271755 168 0 0 0.96356636
-0.20793141 0.028446488 0.43156517 0 180 255 0.30493486
-0.3155973 -0.34437487 -0.3943233 255 236 0 0.64527863
0.3507869 0.044765607 -0.30196917 0 0 172 0.044658165
0.40079188 0.044765607 0.3092322 0 176 255 0.30018574
0.5292495 -0.6445862 0.31009853 128 0 0 1.0
0.40010688 0.044765607 -0.14321034 0 0 128 0.0
-0.20178656 -0.23199455 0.31164986 0 56 255 0.1807332
-0.20178656 -0.4874392 0.3606878 128 0 0 1.0
0.38936847 -0.050892632 -0.30307728 0 180 255 0.30248606
0.545468 0.044765607 0.27695662 128 0 0 1.0
-0.3155973 0.13240533 0.24365352 0 0 128 0.0
0.021604057 0.044765607 -0.40614963 0 0 140 0.013034177
-0.27282506 -0.32469118 0.43156517 255 220 0 0.659537
0.2396557 0.044765607 -0.25698078 0 0 128 0.0
-0.3155973 -0.21817368 -0.32006124 0 36 255 0.16333239
-0.21419713 0.2145046 0.33010456 0 0 128 0.0
-0.3155973 -0.012713957 0.186315 0 108 255 0.23216294
-0.23605672 0.51300347 -0.41271755 128 0 0 1.0
-0.3155973 -0.75235283 -0.35308227 128 0 0 1.0
-0.21419713 0.41238904 -0.027828112 0 12 255 0.1408843
-0.3155973 -0.28058928 0.29529044 128 0 0 1.0
0.43189892 0.040010903 -0.41271755 255 208 0 0.673312
-0.20178656 -0.3495728 0.34388515 146 255 110 0.5182512
-0.21486199 -0.08326896 -0.28097594 0 0 232 0.10303753
0.4428791 -0.050892632 0.0006396832 0 76 255 0.20057051
-0.13256124 -0.050892632 0.2989572 0 144 255 0.26799554
0.25629717 0.044765607 0.3684847 0 0 232 0.10440857
0.14593157 0.02212031 0.43156517 0 56 255 0.18118481
0.55092776 -0.7267258 0.38635513 128 0 0 1.0
-0.3155973 -0.58537406 -0.4018583 128 0 0 1.0
-0.28318065 0.05024561 -0.41271755 0 0 180 0.052006885
-0.24901128 0.76939493 0.34579912 128 0 0 1.0
0.14587112 -0.050892632 -0.28446138 0 0 128 0.0
-0.3155973 0.017224576 0.2608188 0 92 255 0.21606876
-0.3155973 0.5147764 0.25010058 128 0 0 1.0
-0.2261242 -0.08582764 -0.41271755 82 255 174 0.45751047
0.5201834 -0.26670796 -0.29937023 128 0 0 1.0
0.4418516 -0.6637259 -0.34270653 128 0 0 1.0
-0.21419713 0.21359797 0.34434855 0 0 128 0.0
-0.012585507 0.044765607 -0.12318415 0 0 128 0.0
0.55519897 -0.24370001 0.42989296 250 255 6 0.6213567
0.43373233 -0.49205282 0.35641664 128 0 0 1.0
-0.20178656 -0.12638366 0.32263 0 0 236 0.10903949
-0.3155973 0.46043977 -0.4124758 128 0 0 1.0
0.17389569 -0.050892632 0.34866002 0 0 128 0.0
0.027930232 -0.050892632 -0.13773033 0 0 148 0.023032922
0.26064894 0.044765607 -0.35388812 0 0 128 0.0
-0.3155973 -0.050771754 0.18923631 130 255 126 0.50524664
-0.2110945 -0.7452611 0.29426295 128 0 0 1.0
-0.22251788 0.581302 0.43156517 128 0 0 1.0
0.437117 0.034591343 0.43156517 6 255 250 0.38148963
-0.109774925 -0.050892632 -0.095340915 0 0 128 0.0
0.06288539 0.044765607 -0.09584459 0 0 128 0.0
-0.3155973 0.643234 -0.06548297 128 0 0 1.0
0.01983112 -0.050892632 0.3298628 0 0 128 0.0
-0.21419713 0.6251621 0.32817042 128 0 0 1.0
-0.21419713 0.37920684 0.19729513 0 0 128 0.0
0.55519897 -0.24007355 0.32389927 0 240 255 0.36193275
0.4800504 -0.76728183 -0.3599927 128 0 0 1.0
-0.3155973 -0.4285493 0.31854016 128 0 0 1.0
-0.017702859 0.044765607 -0.26346815 0 0 128 0.0
-0.29196483 -0.4284284 -0.41271755 128 0 0 1.0
-0.3155973 0.78726536 -0.23941256 128 0 0 1.0
0.3947679 -0.050892632 -0.0027651698 0 0 128 0.0
-0.3155973 0.1987899 -0.0026442874 0 0 128 0.0
0.55519897 0.015189721 -0.063145906 255 220 0 0.6612249
-0.30457684 -0.15043926 -0.28097594 0 0 128 0.0
-0.3155973 -0.6191203 0.389075 128 0 0 1.0
0.17963761 -0.050892632 0.33258265 0 0 164 0.0381735
-0.21419713 0.25725666 -0.15537916 0 0 128 0.0
-0.3155973 0.10712076 0.3100381 0 252 255 0.37433842
0.20870982 -0.050892632 -0.3123449 0 0 220 0.09115489
-0.21419713 0.07240738 0.16618808 0 92 255 0.21700037
-0.21419713 0.7948407 0.04437895 128 0 0 1.0
-0.3155973 0.3367771 0.31904382 0 0 128 0.0
-0.3155973 0.14743502 0.23920102 0 128 255 0.2518021
0.24344334 -0.050892632 -0.15332416 0 0 128 0.0
-0.20474817 -0.4633634 -0.28097594 128 0 0 1.0
-0.3155973 0.46646374 -0.050795764 46 255 210 0.42047986
0.38419068 0.044765607 -0.30640155 128 0 0 1.0
-0.3155973 0.49346077 0.33653146 128 0 0 1.0
0.3117016 0.044765607 0.035735864 0 0 232 0.105465285
0.5549572 -0.5191103 0.43156517 128 0 0 1.0
0.55159265 -0.5407684 0.43156517 128 0 0 1.0
-0.050381385 0.044765607 0.28733236 0 56 255 0.1813851
0.47823718 0.044765607 0.3481362 255 224 0 0.6582325
-0.10369052 0.044765607 -0.1420418 0 0 252 0.124760434
0.234901 0.044765607 -0.044167377 0 0 128 0.0
0.4418516 -0.08077072 -0.35699078 128 0 0 1.0
0.20103379 0.044765607 -0.10188871 0 0 128 0.0
-0.26921877 -0.050892632 0.17080176 198 255 58 0.57170844
-0.21419713 0.4566521 0.19519985 255 224 0 0.65495723
-0.01347198 -0.050892632 -0.3674471 0 0 232 0.10346395
0.2129004 0.044765607 -0.18783608 0 0 128 0.0
-0.21419713 0.31270137 -0.28174153 0 0 132 0.0055648694
-0.21667522 -0.050892632 -0.14496312 0 0 244 0.11395854
-0.08068257 0.044765607 -0.07452899 0 0 144 0.019402726
-0.22090611 -0.41466796 0.43156517 128 0 0 1.0
0.4418516 -0.2921134 -0.32362726 255 248 0 0.6313784
-0.21419713 0.076094285 0.35476455 0 0 128 0.0
0.33487073 -0.050892632 0.031625863 0 0 128 0.0
0.55519897 -0.0060251346 -0.3138358 122 255 134 0.49532923
0.23933335 0.044765607 -0.33144432 0 132 255 0.25870922
-0.3155973 0.26225314 0.2170594 0 0 132 0.005566987
0.11446186 -0.050892632 0.30911133 0 0 200 0.071120225
-0.3155973 0.10770503 -0.097375765 0 0 136 0.009010426
0.49993554 -0.0254469 -0.41271755 255 40 0 0.8366905
-0.25124758 -0.77350724 -0.40228137 128 0 0 1.0
-0.22255817 -0.050892632 -0.17492181 0 0 224 0.09781608
0.55519897 -0.47027385 -0.40886948 255 56 0 0.8198634
-0.3155973 0.30311137 0.36640957 0 0 128 0.0
-0.3155973 0.22590782 0.003802772 0 0 128 0.0
-0.23498891 -0.3768721 -0.41271755 0 236 255 0.3577698
-0.21419713 0.48362902 -0.13511123 250 255 6 0.6201518
-0.058178302 0.044765607 -0.36531153 0 0 128 0.0
-0.18675685 -0.050892632 0.256185 0 168 255 0.29228327
-0.19112876 -0.34197736 -0.30267432 0 240 255 0.3635994
-0.21403597 -0.06503587 -0.41271755 0 0 128 0.0
-0.21419713 0.3526127 0.08854131 0 0 128 0.0
-0.3155973 0.07115826 0.29613662 0 0 220 0.0905005
-0.21419713 0.75658137 0.21202265 128 0 0 1.0
-0.10369052 0.044765607 -0.1420418 0 0 212 0.08560068
-0.097263604 -0.050892632 -0.35012066 0 0 208 0.08216654
-0.26259038 -0.56085503 0.43156517 128 0 0 1.0
-0.25620374 -0.2591125 0.29426295 0 0 236 0.109417416
-0.19112876 -0.65764153 -0.3868689 128 0 0 1.0
0.45220718 -0.7148592 -0.29937023 128 0 0 1.0
0.45269072 -0.41537312 -0.41271755 128 0 0 1.0
-0.21387479 -0.0525447 -0.28097594 0 72 255 0.19857414
-0.3155973 0.5213242 0.3114887 128 0 0 1.0
-0.3155973 0.374573 0.14221306 0 0 160 0.032830846
0.55519897 -0.19006853 -0.30829537 128 0 0 1.0
-0.24983728 -0.050892632 -0.13281445 0 0 220 0.09385795
-0.3155973 -0.016582193 -0.342908 0 0 128 0.0
0.24521628 -0.050892632 0.124020286 0 0 128 0.0
-0.2109736 -0.72861964 -0.41271755 128 0 0 1.0
-0.3155973 -0.61130327 -0.37596935 128 0 0 1.0
0.19938174 0.044765607 0.13806278 0 80 255 0.206011
-0.21419713 0.6812515 0.17579822 128 0 0 1.0
-0.3155973 0.29243344 -0.31462154 0 0 128 0.0
0.19551349 -0.050892632 0.02733454 0 0 128 0.0
-0.3155973 -0.030987341 -0.0419512 0 0 128 0.0
0.2829719 -0.050892632 -0.35622522 0 200 255 0.32223952
0.42140234 0.044765607 -0.28349432 202 255 54 0.576051
-0.08068257 0.044765607 -0.07452899 0 0 128 0.0
-0.21419713 0.3044612 0.3391506 0 0 152 0.026432972
-0.3155973 0.0019732504 0.089327045 0 168 255 0.29354188
-0.19634685 -0.050892632 0.3987053 98 255 158 0.4723825
0.4418516 -0.59853005 -0.3743374 128 0 0 1.0
0.52735573 -0.20612574 -0.29937023 216 0 0 0.91403776
0.45347643 -0.044324696 -0.41271755 128 0 0 1.0
-0.3155973 0.082077965 0.32859352 0 0 204 0.075768106
-0.2287433 0.3005527 -0.41271755 0 0 128 0.0
-0.26917848 -0.57592505 0.29426295 128 0 0 1.0
-0.21419713 0.5311358 -0.17554638 128 0 0 1.0
0.527255 -0.5323067 -0.29937023 128 0 0 1.0
-0.21419713 0.114857234 0.41276798 0 0 228 0.10191839
-0.14406523 -0.050892632 0.27993837 0 68 255 0.19281782
-0.27197894 -0.33744428 -0.28097594 0 40 255 0.16554712
-0.24878965 -0.77350724 -0.32769698 128 0 0 1.0
0.20252466 -0.050892632 -0.18678844 0 0 128 0.0
0.4418516 -0.3122403 -0.35191375 0 192 255 0.3175367
0.43373233 -0.49205282 0.35641664 128 0 0 1.0
-0.2453848 0.5074429 -0.41271755 255 20 0 0.85812867
0.35231805 -0.050892632 -0.3188524 255 184 0 0.6945196
-0.26978287 -0.050892632 0.25433147 0 36 255 0.16426708
0.44628397 -0.7332534 -0.41271755 128 0 0 1.0
-0.1937479 -0.2893734 -0.39019313 0 0 252 0.12235441
-0.3155973 0.5270661 -0.0714062 128 0 0 1.0
0.5336416 -0.4133987 -0.29937023 98 255 158 0.47180662
0.34806705 -0.050892632 0.058320716 0 0 128 0.0
0.40472057 0.044765607 -0.31401712 102 255 154 0.47474962
0.55519897 -0.00048469086 -0.14369386 0 204 255 0.32895526
0.00040935012 0.044765607 -0.21030004 0 0 128 0.0
-0.3155973 0.23926534 -0.36672184 0 0 128 0.0
0.078338176 -0.050892632 0.25616485 0 0 128 0.0
0.46768013 -0.24204797 -0.41271755 170 255 86 0.5419063
-0.3155973 0.5181812 -0.012395465 128 0 0 1.0
0.29977456 -0.050892632 0.28944778 0 136 255 0.26193783
-0.3155973 -0.37729517 -0.39261082 128 0 0 1.0
-0.3155973 -0.03586293 -0.31544754 0 0 212 0.08544347
0.07537656 -0.050892632 0.1498891 0 0 132 0.006078066
0.22768834 0.044765607 -0.035806347 0 0 184 0.057029318
-0.3155973 0.033120606 -0.08980047 0 0 128 0.0
0.44656605 -0.47381976 -0.41271755 128 0 0 1.0
-0.08465154 0.044765607 -0.3154677 0 0 128 0.0
0.42394084 0.044765607 0.2674069 0 92 255 0.21808715
-0.28011835 -0.55620104 -0.41271755 128 0 0 1.0
-0.21419713 0.19292709 0.210975 0 0 128 0.0
0.51305133 -0.050892632 0.025803363 146 255 110 0.51775926
0.20901202 0.044765607 0.35283044 0 0 200 0.07367347
-0.30415377 -0.76000875 0.4021706 128 0 0 1.0
-0.26968217 -0.6294961 -0.28097594 128 0 0 1.0
-0.2642223 -0.14119177 0.29426295 0 0 236 0.107966885
-0.1645145 -0.050892632 -0.0083862 0 0 148 0.020779146
0.35852337 -0.050892632 -0.077571206 0 0 128 0.0
-0.14799389 -0.050892632 -0.18656681 0 0 204 0.07622769
-0.23067744 -0.5604521 0.43156517 128 0 0 1.0
-0.3155973 -0.39421868 -0.38330287 118 255 138 0.4909858
-0.3155973 0.30311137 0.36640957 0 0 128 0.0
-0.28968817 -0.050892632 -0.24450976 158 255 98 0.53066957
-0.19884509 0.044765607 0.079052046 190 255 66 0.5609234
-0.3057655 0.8215355 0.16391145 128 0 0 1.0
-0.3155973 -0.55996853 0.41846958 128 0 0 1.0
-0.21419713 0.28493872 0.015629098 0 0 128 0.0
0.01221553 0.044765607 -0.025027674 0 0 128 0.0
-0.3155973 0.6604799 -0.0041553173 128 0 0 1.0
-0.21419713 0.53554803 -0.2140877 255 248 0 0.63257796
0.4841403 0.044765607 -0.22095785 0 224 255 0.34847382
0.4418516 -0.23423088 -0.383323 255 108 0 0.7715877
0.43373233 -0.24712501 0.4235265 148 0 0 0.98130924
0.33980674 0.044765607 -0.27563697 0 32 255 0.15947717
0.43480015 0.024437223 -0.41271755 146 255 110 0.5213327
-0.19112876 -0.4985402 -0.29141212 128 0 0 1.0
-0.3155973 0.25667238 -0.22198534 0 0 128 0.0
0.43373233 -0.64162457 0.42814016 128 0 0 1.0
0.5237292 -0.19538736 0.31009853 128 0 0 1.0
-0.19112876 -0.40588385 -0.35269946 0 232 255 0.35590613
-0.20178656 -0.35231283 0.29776853 110 255 146 0.48423523
-0.21419713 0.47611418 -0.22424181 255 124 0 0.75403464
0.55040395 0.044765607 0.08084513 74 255 182 0.44746482
0.31107703 0.044765607 -0.022348111 0 0 128 0.0
-0.08068257 0.044765607 -0.07452899 0 0 144 0.016375585
-0.21419713 0.5769905 0.2092222 128 0 0 1.0
-0.16650906 0.044765607 0.07044925 0 0 128 0.0
-0.1937479 -0.2893734 -0.39019313 0 0 180 0.052379962
0.4445513 -0.6436192 0.31009853 128 0 0 1.0
-0.19997332 -0.43217576 -0.39871538 128 0 0 1.0
-0.15101594 -0.050892632 0.029993951 0 0 188 0.060319744
0.44465205 -0.7267258 0.32758617 128 0 0 1.0
0.55519897 -0.7372224 -0.36952227 128 0 0 1.0
-0.3155973 0.63908374 0.3915128 128 0 0 1.0
-0.3155973 0.5714702 -0.29677123 154 255 102 0.52799994
0.4729788 -0.6729936 0.31009853 128 0 0 1.0
0.10299818 0.044765607 0.21431941 0 0 156 0.029021159
-0.21419713 0.58571416 0.31533676 128 0 0 1.0
-0.3155973 0.055181634 -0.38342372 0 0 128 0.0
-0.3155973 -0.3599687 0.3716478 255 156 0 0.7253117
-0.23498891 -0.3768721 -0.41271755 0 12 255 0.13917974
-0.20178656 -0.65256447 0.34070194 128 0 0 1.0
-0.19759595 0.044765607 0.0402891 0 0 164 0.036923166
-0.060616106 -0.050892632 -0.082668416 0 0 128 0.0
0.37272707 0.044765607 -0.3391808 128 0 0 1.0
-0.3155973 0.77944833 -0.033489432 128 0 0 1.0
-0.3155973 0.14461444 -0.025350025 0 0 128 0.0
-0.21419713 0.3828333 0.4006797 0 0 128 0.0
0.4418516 -0.5240665 -0.39251006 152 0 0 0.979993
-0.3155973 0.6056396 0.27903175 128 0 0 1.0
0.49445555 -0.26751384 -0.29937023 255 204 0 0.67652994
0.43373233 -0.13621543 0.34696764 0 124 255 0.25052795
-0.07828507 0.044765607 -0.17532475 0 0 128 0.0
-0.19864361 -0.75547564 -0.39019313 128 0 0 1.0
-0.06577375 -0.050892632 -0.3121636 0 0 228 0.09850558
0.55519897 -0.72368354 -0.35388812 128 0 0 1.0
-0.3155973 0.6833066 -0.20048843 128 0 0 1.0
-0.21419713 0.7155217 0.30772117 128 0 0 1.0
0.16775084 0.016479135 0.43156517 0 0 128 0.0
0.4614547 -0.3591628 0.43156517 0 252 255 0.37398717
0.55519897 -0.20401031 0.36733633 128 0 0 1.0
-0.05013962 -0.050892632 0.32389927 0 88 255 0.2138967
0.43373233 -0.64162457 0.42814016 128 0 0 1.0
0.15749599 0.044765607 -0.19831255 0 0 140 0.013959055
0.28307262 -0.020792928 0.43156517 0 28 255 0.15665916
-0.3155973 0.47518742 0.25912648 255 164 0 0.7141292
-0.30908978 -0.48197928 -0.41271755 128 0 0 1.0
-0.3155973 0.56891155 -0.39498815 128 0 0 1.0
0.2748325 -0.026252784 -0.41271755 255 160 0 0.719612
0.054403473 -0.050892632 -0.097698115 0 0 128 0.0
-0.03186625 0.044765607 0.42685077 255 96 0 0.7820033
0.5128901 -0.7267258 0.36524102 128 0 0 1.0
-0.28646466 -0.41730723 -0.28097594 198 255 58 0.5713677
-0.20845522 -0.04067808 0.43156517 0 196 255 0.32111484
0.55519897 -0.20636751 0.39229855 0 20 255 0.14745292
-0.3155973 0.10023046 0.017684096 0 0 204 0.07836436
-0.26968217 -0.6294961 -0.28097594 128 0 0 1.0
-0.3155973 -0.019201308 0.31420854 255 104 0 0.7737252
0.55519897 0.042509135 -0.30752975 0 0 228 0.09998714
-0.15661684 0.044765607 -0.35372698 0 0 136 0.008410889
-0.21419713 0.3083899 -0.334688 0 0 128 0.0
-0.20178656 -0.6041108 0.42709252 128 0 0 1.0
-0.25072375 -0.050892632 0.27649322 0 0 192 0.06561025
-0.12536874 0.044765607 0.3422331 128 0 0 1.0
0.4418516 -0.65256447 -0.3980908 128 0 0 1.0
0.46975526 -0.61968446 -0.41271755 128 0 0 1.0
0.04138847 -0.050892632 0.28048235 0 0 212 0.084369026
-0.06577375 -0.050892632 -0.3121636 0 0 184 0.05658456
-0.21419713 0.71943027 -0.3306183 128 0 0 1.0
-0.2421411 0.10903473 -0.41271755 0 0 128 0.0
-0.3155973 -0.027501902 0.26049647 0 0 148 0.02048836
-0.16423245 0.044765607 0.1365719 0 0 180 0.054874867
-0.3155973 0.71799976 -0.018500024 128 0 0 1.0
-0.21419713 0.57211494 -0.007942965 128 0 0 1.0
-0.19112876 -0.5533805 -0.3247555 128 0 0 1.0
-0.098250814 -0.050892632 -0.22333519 0 0 128 0.0
-0.21419713 0.773505 0.10663337 128 0 0 1.0
-0.31519434 -0.22983883 0.43156517 0 136 255 0.2603255
-0.3155973 -0.66410875 0.40561575 128 0 0 1.0
-0.21419713 0.34177357 -0.12898651 0 132 255 0.2555113
0.44702938 0.044765607 0.047844246 0 120 255 0.24332397
-0.3155973 0.20146944 0.41182104 0 0 128 0.0
0.49848497 0.044765607 0.22018221 0 0 128 0.0
0.20252466 -0.050892632 -0.18678844 0 0 128 0.0
-0.2381117 -0.61305606 0.29426295 128 0 0 1.0
0.11845098 0.044443253 0.43156517 0 0 160 0.03489211
0.065303035 -0.050892632 0.36046618 0 192 255 0.31553778
0.41549924 -0.050892632 0.25620514 146 255 110 0.51951855
0.4418516 -0.07013308 -0.36283344 22 255 234 0.39968488
-0.21419713 0.16625237 0.30447748 0 140 255 0.2661998
-0.259246 0.34380844 0.43156517 0 0 128 0.0
-0.3155973 0.32480973 0.049012773 0 0 128 0.0
0.1604576 -0.04772955 -0.41271755 86 255 170 0.46149245
0.51933724 0.044765607 0.16129233 26 255 230 0.40381888
0.30479112 0.044765607 -0.13541342 0 0 128 0.0
-0.24220157 0.70522654 0.43156517 128 0 0 1.0
-0.27193865 0.112721644 -0.41271755 0 0 128 0.0
-0.3155973 0.63866067 -0.017734436 128 0 0 1.0
-0.21419713 0.5845658 -0.12787841 128 0 0 1.0
-0.16650906 0.044765607 0.07044925 0 0 128 0.0
-0.27633068 0.56167877 0.43156517 128 0 0 1.0
-0.26917848 -0.57592505 0.29426295 128 0 0 1.0
-0.29994303 -0.526041 0.29426295 128 0 0 1.0
0.1518548 0.044765607 -0.16710475 0 0 128 0.0
-0.3155973 0.25786108 -0.10027695 0 0 128 0.0
-0.3155973 -0.030987341 -0.0419512 10 255 246 0.38666347
0.33591834 -0.050892632 -0.12578313 0 0 128 0.0
0.55519897 0.028587516 -0.01997076 128 0 0 1.0
-0.31013748 -0.10937956 0.29426295 255 96 0 0.7824617
-0.21419713 0.37243742 -0.12721357 106 255 150 0.48151532
0.092924654 -0.050892632 -0.1273546 0 0 176 0.048741713
0.55519897 -0.2713821 -0.40522286 255 68 0 0.810147
0.30732968 -0.050892632 0.37954545 128 0 0 1.0
0.14538759 -0.050892632 0.080724254 0 32 255 0.15781228
0.4462638 0.044765607 -0.39095876 82 255 174 0.4583711
-0.19884509 0.044765607 0.079052046 0 204 255 0.32825193
-0.3155973 0.5142324 -0.045718707 224 0 0 0.9060676
0.55519897 0.0063451612 -0.2549258 140 0 0 0.9886775
-0.28404704 -0.76000875 0.2970231 128 0 0 1.0
-0.21419713 0.34531948 0.10425602 0 0 128 0.0
-0.19997332 -0.72966725 -0.40260375 128 0 0 1.0
-0.16423245 0.044765607 0.1365719 26 255 230 0.40313014
-0.21419713 0.6356991 -0.074811056 128 0 0 1.0
-0.21419713 0.38045594 0.12861381 0 0 128 0.0
-0.21419713 0.7419546 0.2732697 128 0 0 1.0
-0.22271936 -0.53474444 -0.28097594 128 0 0 1.0
-0.3155973 0.12783195 -0.20538417 0 0 128 0.0
0.55519897 -0.20636751 0.39229855 128 0 0 1.0
0.30835718 0.020145899 -0.41271755 214 255 42 0.5881644
-0.25445098 -0.050892632 0.15325367 0 0 128 0.0
-0.3155973 0.04873458 -0.23145446 0 0 128 0.0
0.4445513 -0.6436192 0.31009853 128 0 0 1.0
0.1813501 -0.050892632 0.29992425 0 0 176 0.05026119
-0.2948458 0.47464347 -0.41271755 232 0 0 0.89921886
-0.21828698 -0.76000875 0.35218573 128 0 0 1.0
0.45347643 -0.044324696 -0.41271755 128 0 0 1.0
-0.3155973 0.21105945 -0.12812018 0 0 128 0.0
0.4418516 -0.41668266 -0.38189256 250 255 6 0.619717
-0.16590464 -0.050892632 -0.21038063 0 0 128 0.0
-0.21419713 0.71241903 0.23160557 128 0 0 1.0
-0.21419713 0.17181297 0.28838 0 0 208 0.07970592
-0.21419713 0.36133638 0.29670075 0 0 128 0.0
-0.21419713 0.6259076 -0.028392231 128 0 0 1.0
-0.3155973 0.23926534 -0.36672184 0 0 128 0.0
0.23933335 0.044765607 -0.33144432 0 0 128 0.0
0.15578349 -0.050892632 -0.03187767 0 0 128 0.0
0.55519897 0.037714135 0.4079528 255 204 0 0.6760551
-0.28150848 -0.54550296 0.43156517 128 0 0 1.0
0.3040457 0.044765607 -0.2359271 0 0 128 0.0
-0.20178656 -0.59657574 0.37283647 128 0 0 1.0
-0.24905156 -0.5390358 -0.41271755 128 0 0 1.0
-0.3155973 0.31890666 0.18081485 0 0 128 0.0
-0.21419713 0.76673555 -0.15370695 128 0 0 1.0
-0.3155973 0.123439886 -0.029057082 0 0 128 0.0
-0.047601096 0.044765607 0.15029205 0 0 128 0.0
-0.29208568 -0.056231607 -0.41271755 0 52 255 0.17653036
0.4729788 -0.6729936 0.31009853 128 0 0 1.0
-0.3155973 0.71804005 -0.21136785 128 0 0 1.0
-0.3155973 0.07998267 0.18591204 0 0 188 0.06075298
0.45017233 -0.71084994 0.43156517 128 0 0 1.0
0.23137526 0.044765607 0.14571866 0 144 255 0.27033287
-0.20178656 -0.43020132 0.39620706 128 0 0 1.0
-0.21419713 0.26162857 -0.25021136 0 0 128 0.0
0.55040395 0.044765607 0.08084513 255 212 0 0.66846365
0.1433326 0.044765607 0.19425292 0 0 188 0.061569415
0.55519897 -0.2713821 -0.40522286 255 220 0 0.66046673
-0.3155973 -0.63539916 0.3949378 128 0 0 1.0
-0.25658658 0.6638042 0.43156517 128 0 0 1.0
-0.21891154 0.677202 -0.41271755 128 0 0 1.0
-0.3155973 0.7637538 0.34589985 128 0 0 1.0
-0.3155973 0.12213033 -0.12610549 0 0 128 0.0
-0.3155973 0.41790932 0.4145006 30 255 226 0.40506646
0.052650675 -0.050892632 0.18552926 0 0 128 0.0
-0.3155973 0.70724124 0.12750572 128 0 0 1.0
-0.21419713 0.50047195 0.30701602 128 0 0 1.0
-0.21419713 0.69295704 -0.2494458 128 0 0 1.0
0.55519897 -0.029033078 -0.13650136 128 0 0 1.0
0.3040054 0.044765607 0.41917473 0 0 216 0.088063695
-0.3155973 -0.4540756 0.3439859 128 0 0 1.0
-0.3077198 -0.49793574 0.43156517 128 0 0 1.0
-0.21419713 0.6068887 0.23311661 128 0 0 1.0
-0.3155973 0.69837654 -0.18735254 128 0 0 1.0
-0.082254045 -0.050892632 -0.18030107 0 40 255 0.16608937
-0.21419713 0.37243742 -0.12721357 178 255 78 0.54964364
-0.19950993 -0.57417226 -0.28097594 128 0 0 1.0
0.43455836 -0.008442781 -0.41271755 255 144 0 0.7351184
0.116778776 -0.050892632 -0.038304582 0 0 128 0.0
0.028474206 -0.050892632 0.21433955 0 0 204 0.07690968
-0.3155973 0.6588883 -0.40691522 128 0 0 1.0
-0.2713342 -0.36657694 0.29426295 128 0 0 1.0
-0.091420956 -0.050892632 0.029772332 0 0 128 0.0
0.4418516 -0.3605731 -0.33867714 128 0 0 1.0
-0.073490076 0.044765607 0.29327574 0 72 255 0.1970152
0.5207878 -0.23128942 -0.29937023 255 140 0 0.7396726
0.054403473 -0.050892632 -0.097698115 0 128 255 0.25364205
-0.20503022 -0.38632104 0.43156517 128 0 0 1.0
0.22112039 0.044765607 0.39733532 0 72 255 0.19981077
-0.21419713 0.7097193 0.25745425 128 0 0 1.0
-0.30282405 0.41152272 0.43156517 0 16 255 0.14427614
-0.21419713 0.3952036 0.24778366 0 0 255 0.12808138
-0.21419713 0.076094285 0.35476455 0 0 216 0.0890333
0.33591834 -0.050892632 -0.12578313 0 0 128 0.0
-0.21419713 0.7435261 -0.35088623 128 0 0 1.0
-0.18508463 0.044765607 -0.23723666 0 0 168 0.040140085
0.55519897 -0.00048469086 -0.14369386 94 255 162 0.47050354
-0.21419713 0.50047195 0.30701602 128 0 0 1.0
-0.3155973 -0.54904884 -0.3993399 128 0 0 1.0
0.39740714 0.044765607 0.02362748 0 0 204 0.0764905
0.55519897 -0.2713821 -0.40522286 128 0 0 1.0
-0.21419713 0.773505 0.10663337 128 0 0 1.0
-0.3155973 -0.044203814 0.4148834 0 96 255 0.22194064
-0.21419713 0.3202565 0.34110484 0 0 128 0.0
0.48947924 -0.050892632 -0.16555344 34 255 222 0.40850377
0.15489702 0.044765607 -0.15191387 0 0 128 0.0
-0.050461978 -0.050892632 0.39687192 255 96 0 0.7812835
-0.19112876 -0.47956166 -0.3257024 128 0 0 1.0
-0.21419713 0.31949094 0.13191792 0 0 168 0.042940516
-0.19112876 -0.66791654 -0.2877655 128 0 0 1.0
0.47884163 0.044765607 0.2387175 126 255 130 0.50133824
-0.3155973 -0.030987341 -0.0419512 0 88 255 0.21210614
-0.027937565 0.044765607 -0.29866505 0 0 128 0.0
0.20870982 -0.050892632 -0.3123449 0 0 160 0.032612726
-0.10157508 -0.050892632 0.041820277 0 0 128 0.0
-0.3155973 0.02705634 0.4251181 128 0 0 1.0
0.3665419 -0.050892632 3.5271463e-05 0 0 128 0.0
-0.3155973 0.7920201 -0.15243769 128 0 0 1.0
0.234901 0.044765607 -0.044167377 0 0 128 0.0
0.49437496 -0.29326177 -0.41271755 128 0 0 1.0
0.1700476 0.044765607 0.42056486 0 0 140 0.015347135
0.43373233 -0.7150002 0.34408662 128 0 0 1.0
0.008911412 -0.050892632 -0.35118845 0 0 200 0.073594935
0.5288466 -0.065116465 0.43156517 255 88 0 0.7913319
-0.3155973 -0.047387052 0.15393867 0 0 128 0.0
0.12078804 -0.050892632 -0.3430692 0 0 156 0.028390022
-0.22695024 0.22913136 -0.41271755 0 0 128 0.0
-0.25916535 -0.4337271 0.43156517 128 0 0 1.0
-0.2688561 -0.480569 -0.41271755 128 0 0 1.0
-0.3155973 -0.047387052 0.15393867 0 0 252 0.122828364
-0.21419713 0.063744135 0.021451598 0 72 255 0.19830613
-0.20178656 -0.3832184 0.3808953 154 255 102 0.5274711
0.5154085 -0.20409088 0.31009853 255 36 0 0.84300876
-0.3155973 0.7210219 0.31704926 128 0 0 1.0
0.4835963 -0.7146376 -0.29937023 128 0 0 1.0
0.48204497 0.044765607 -0.1982118 0 212 255 0.33599707
-0.26329553 0.7701605 -0.3249771 128 0 0 1.0
0.46318737 -0.44684282 -0.41271755 156 0 0 0.9729394
-0.21419713 0.7941758 -0.20703623 128 0 0 1.0
-0.21419713 0.44599435 -0.34409666 154 255 102 0.52792525
-0.12073493 0.044765607 0.36217868 0 0 128 0.0
-0.3155973 -0.2716037 -0.39194596 0 248 255 0.3724258
-0.00079947145 -0.050892632 -0.22722358 0 0 176 0.047281146
-0.3155973 0.002295602 -0.3322502 0 0 128 0.0
0.55519897 -0.69952726 0.37049943 128 0 0 1.0
-0.21419713 0.0506284 -0.17494196 0 0 128 0.0
-0.21419713 0.6781892 -0.01956782 128 0 0 1.0
0.5380538 -0.3611574 -0.41271755 255 236 0 0.6461873
0.10473083 -0.050892632 0.393044 0 0 128 0.0
-0.2948458 0.47464347 -0.41271755 190 255 66 0.56334186
-0.31440863 -0.050892632 -0.18537813 0 0 220 0.09092856
0.54012895 -0.17751691 -0.29937023 255 152 0 0.727731
0.043644942 -0.050892632 -0.32759625 0 0 132 0.005220848
-0.3155973 0.69952494 0.4086781 128 0 0 1.0
0.15812054 -0.050892632 0.026347332 0 0 128 0.0
-0.3155973 0.5636733 -0.26890787 255 20 0 0.85634893
-0.18675685 -0.050892632 0.256185 0 0 192 0.065040514
-0.3155973 0.3597246 -0.0044575226 0 0 128 0.0
0.523689 0.044765607 -0.3343052 222 255 34 0.59309477
-0.2402473 0.7713492 -0.32185432 128 0 0 1.0
-0.3155973 0.3522702 -0.12830152 0 0 128 0.0
-0.3155973 0.43491346 0.1417094 0 244 255 0.36639073
0.43260407 0.044765607 -0.00020649323 0 0 232 0.10582168
0.43373233 -0.6923952 0.34978822 128 0 0 1.0
-0.21766244 0.7930677 -0.2610908 128 0 0 1.0
-0.3046373 0.008178543 -0.41271755 0 0 164 0.038514845
0.04304053 0.044765607 -0.36160445 130 255 126 0.503544
-0.29323408 0.8203871 0.16947204 128 0 0 1.0
-0.20178656 -0.7585178 0.30411488 128 0 0 1.0
-0.19112876 -0.65375316 -0.36253121 128 0 0 1.0
-0.21419713 0.282924 -0.18582137 0 0 128 0.0
0.2485204 0.044765607 -0.17788343 0 0 140 0.013770633
-0.3155973 0.41035417 -0.07618106 0 0 220 0.09179186
0.55519897 -0.03139028 -0.08385709 38 255 218 0.41215774
-0.19997332 -0.5710696 -0.40645185 128 0 0 1.0
-0.3155973 0.029635165 0.24024867 154 255 102 0.52736837
-0.047601096 0.044765607 0.15029205 0 0 128 0.0
-0.21419713 0.069989726 -0.18310152 0 0 228 0.10163712
-0.3155973 0.5312768 -0.1210687 128 0 0 1.0
-0.229247 0.3984674 -0.41271755 0 0 128 0.0
0.4418516 -0.2921134 -0.32362726 122 255 134 0.49705496
0.43373233 -0.054176606 0.37994838 94 255 162 0.46900082
0.47386527 -0.3837221 0.43156517 0 236 255 0.35839206
0.13557598 0.044765607 0.078024544 0 84 255 0.2105745
-0.13501918 0.044765607 -0.25593314 0 0 132 0.006352154
-0.21419713 0.42600846 0.06839425 0 4 255 0.132855
-0.21419713 0.69295704 -0.2494458 128 0 0 1.0
-0.3155973 0.26225314 0.2170594 0 0 128 0.0
-0.21419713 0.21359797 0.34434855 0 124 255 0.24941453
0.55092776 -0.7267258 0.38635513 128 0 0 1.0
-0.20178656 -0.65256447 0.34070194 128 0 0 1.0
-0.25124758 -0.77350724 -0.40228137 128 0 0 1.0
0.55519897 -0.031853665 0.18355484 206 255 50 0.5787752
0.01983112 -0.050892632 0.3298628 0 128 255 0.25108665
0.5357167 -0.3896453 0.43156517 128 0 0 1.0
0.2783582 0.044765607 0.17734955 0 64 255 0.18843643
-0.1818611 0.044765607 0.1471491 0 0 244 0.11599736
0.54959804 -0.05975734 0.43156517 128 0 0 1.0
-0.3155973 -0.006951897 0.27006632 255 8 0 0.86787444
-0.071576096 0.044765607 -0.24513432 0 0 128 0.0
-0.21419713 0.09745017 0.32105854 0 20 255 0.14623849
0.0098784715 -0.050892632 0.011901891 0 0 172 0.044366505
-0.21419713 0.79627115 -0.07053988 128 0 0 1.0
-0.29770672 0.82852656 -0.09387018 128 0 0 1.0
-0.21419713 0.46745095 0.08356499 128 0 0 1.0
-0.21419713 0.54344565 0.2532234 0 176 255 0.2997133
0.38562116 0.044765607 0.2945047 0 0 172 0.043325607
-0.1030861 -0.050892632 0.019638361 0 0 128 0.0
0.05015244 -0.050892632 -0.24626255 0 0 128 0.0
-0.22991186 0.7267839 -0.41271755 128 0 0 1.0
-0.3155973 0.7920201 -0.15243769 128 0 0 1.0
-0.20178656 -0.23199455 0.31164986 0 40 255 0.16703507
-0.21419713 0.5032321 -0.17798416 128 0 0 1.0
0.55519897 -0.39778474 0.37350133 128 0 0 1.0
-0.19801904 0.044765607 0.29712382 0 0 232 0.10373876
-0.20178656 -0.6038086 0.305505 128 0 0 1.0
-0.3155973 0.07998267 0.18591204 150 255 106 0.5216749
0.55519897 -0.043115877 -0.2705196 0 0 172 0.046892226
