ply
format ascii 1.0
element vertex 909
property float x
property float y
property float z
property uchar red
property uchar green
property uchar blue
property float weight
end_header
0.010354566 0.3776744 -0.12774648 22 255 234 0.39911222
-0.11155795 0.38621327 0.07399256 255 192 0 0.6889199
0.1558196 -0.091159716 -0.20157622 0 100 255 0.22462712
0.32309896 -0.080209106 0.24390094 0 0 128 0.0
0.19488548 -0.030170863 0.06436732 0 0 128 0.0
-0.8294534 0.09530494 -0.26943097 255 156 0 0.72509193
-0.43857726 -0.0814041 -0.003617762 0 80 255 0.20452115
-0.535047 -0.15121429 0.050157584 6 255 250 0.38334432
-0.2326883 0.21169871 0.33748087 0 0 128 0.0
-0.43744743 0.027710965 -0.4247385 0 0 232 0.102938205
0.60190517 -0.042294763 -0.26688883 0 0 232 0.10377541
0.34980193 -0.13919903 0.29600325 210 255 46 0.580651
-0.45802328 -0.15121429 0.06247703 238 255 18 0.60810673
0.21261506 -0.17248541 0.32824677 0 0 128 0.0
0.43577734 0.114816174 -0.04355275 0 28 255 0.15601957
0.78743553 0.072186984 -0.3364383 176 0 0 0.9557918
0.6318021 -0.011854656 -0.34738892 234 255 22 0.60673386
-0.5221626 -0.16979122 -0.27062592 0 0 220 0.090967275
-0.30684397 -0.0040762415 0.33785027 0 112 255 0.23549128
0.6498141 -0.18382713 0.3635538 128 0 0 1.0
0.33919898 0.17841232 -0.25824133 0 0 128 0.0
-0.8269765 -0.06430463 -0.044834666 0 80 255 0.20399931
0.6590048 -0.24455525 -0.3872587 128 0 0 1.0
-0.36755034 -0.002511868 -0.37893713 0 0 192 0.06448378
-0.8220444 -0.062197074 -0.2553733 128 0 0 1.0
-0.6293874 -0.18678206 0.39147353 0 232 255 0.35560107
-0.15868472 -0.07447307 -0.10784417 0 132 255 0.25747004
0.29139867 0.23229629 0.08820229 0 24 255 0.14933732
-0.37150472 -0.25300723 0.36042506 128 0 0 1.0
0.23701493 0.34084645 -0.19282007 0 0 128 0.0
0.8574847 -0.048378434 -0.38534668 128 0 0 1.0
0.82880455 0.033533912 0.2609787 128 0 0 1.0
0.37995958 0.21999858 -0.119772516 0 0 252 0.12511104
-0.5703323 -0.15121429 0.022455135 0 216 255 0.33765203
-0.19244912 0.38819048 -0.20596516 0 0 216 0.08851313
-0.33530688 -0.2340609 -0.42121866 0 188 255 0.30980814
0.75341046 -0.23688549 0.30082676 0 116 255 0.24177971
-0.43538335 -0.0811651 -0.08865886 0 0 156 0.02847497
0.6422313 -0.12112182 -0.28861627 255 176 0 0.70475733
0.015938511 0.034946196 0.07642603 0 0 128 0.0
-0.31953275 0.037705578 -0.31151694 0 0 128 0.0
0.28060013 0.034707192 0.27788264 0 172 255 0.2947417
-0.8240215 -0.07264796 -0.16694273 6 255 250 0.38302112
0.95984256 -0.09324555 0.002118275 128 0 0 1.0
-0.47840363 0.07314299 -0.37191918 0 8 255 0.13485335
-0.3487779 0.2971092 0.33997956 0 0 128 0.0
-0.25185186 -0.07968763 -0.022846524 0 0 164 0.037373498
0.09211483 -0.11147485 0.27388477 0 0 140 0.012165948
-0.17923886 -0.17155115 -0.3224024 0 4 255 0.12945445
-0.4500276 0.013327417 -0.25174484 0 0 152 0.023565551
0.29565725 -0.10904138 0.02871263 0 0 128 0.0
0.32240367 0.22291006 0.14821342 128 0 0 1.0
-0.7580137 -0.10762909 -0.101564944 255 164 0 0.7172074
-0.6657156 -0.08073056 -0.3421526 128 0 0 1.0
0.3472164 -0.15045384 -0.38430378 0 44 255 0.17018537
-0.5915165 0.23955326 -0.33152792 0 0 128 0.0
0.7329866 -0.18515252 -0.26877913 128 0 0 1.0
-0.026755858 0.22440925 0.098783545 0 108 255 0.23297186
0.88794655 -0.17235506 0.4127012 128 0 0 1.0
0.6329102 0.013522964 -0.3647491 0 224 255 0.34725544
0.7952574 0.05054648 -0.0656278 128 0 0 1.0
-0.39662164 0.02766751 -0.3289206 0 0 128 0.0
-0.44324866 -0.30476195 -0.24096803 0 92 255 0.21759413
-0.5164483 -0.07488588 0.25476465 0 80 255 0.20617709
0.19325593 0.35883674 0.05843573 0 0 144 0.016224187
-0.69085425 -0.07751491 0.24557395 0 0 255 0.12629318
-0.3596633 0.38997212 -0.117795326 255 36 0 0.84300107
-0.8535491 0.2593252 -0.26823595 128 0 0 1.0
-0.30428013 -0.15121429 0.14658386 66 255 190 0.43995
-0.44116285 -0.16716221 -0.28822517 0 0 204 0.075302646
0.61654943 -0.15121429 0.11557883 0 80 255 0.20611534
0.64927095 0.026190046 -0.3600777 128 0 0 1.0
0.68238354 -0.18891135 -0.28861627 128 0 0 1.0
-0.49326515 -0.1570807 0.4030325 0 0 248 0.11847406
0.4771246 0.145756 0.013807624 0 204 255 0.32668158
0.10330444 0.35084108 -0.30137026 0 0 128 0.0
0.13328828 -0.01359285 0.09293886 0 0 128 0.0
0.21500508 -0.053223655 -0.26341245 0 0 128 0.0
-0.7492358 -0.0909859 0.036969047 255 136 0 0.74491173
-0.70812756 -0.10284906 -0.1885615 90 255 166 0.46454248
-0.84650946 0.04100814 0.13391677 128 0 0 1.0
-0.38236845 -0.28605464 0.3642056 255 168 0 0.7126952
0.040447034 0.29993373 0.32414028 0 0 128 0.0
-0.17639257 -0.11821035 -0.29367873 0 0 184 0.055394635
-0.18012968 0.00750447 -0.2914191 0 0 232 0.1019857
0.8574847 -0.048378434 -0.38534668 128 0 0 1.0
-0.7580137 -0.10762909 -0.101564944 0 44 255 0.17078789
0.04948564 0.37619695 0.0032263733 0 128 255 0.25266004
-0.35842484 -0.0909859 -0.1359377 0 0 128 0.0
0.6685214 -0.071605034 -0.28433594 58 255 198 0.43249366
-0.7953848 0.21513164 0.3032385 78 255 178 0.4537678
-0.72103363 -0.19555995 0.39053926 246 255 10 0.61747336
-0.7580137 -0.10762909 -0.101564944 0 176 255 0.298578
-0.09228574 -0.17257233 -0.40503174 0 28 255 0.15453738
-0.24357373 -0.15121429 0.02021721 0 0 160 0.03268037
0.53272504 0.08554935 0.1803048 0 32 255 0.15694307
0.7537146 -0.2593299 0.35996878 255 180 0 0.70024025
0.5405904 0.1326761 0.04298754 0 0 252 0.1252293
0.21839455 0.013349144 0.04683329 0 0 168 0.042588454
0.59873295 -0.16292536 -0.36377138 0 152 255 0.2764127
-0.30169457 0.10212736 0.32409683 0 0 240 0.110410996
-0.611723 -0.097982116 0.32498762 194 255 62 0.56733084
0.027823407 0.35060206 0.32116362 0 0 128 0.0
-0.83492875 -0.05789505 0.07857704 10 255 246 0.38754284
-0.58417267 -0.2603511 -0.31681845 128 0 0 1.0
-0.6354059 -0.15121429 0.002943917 255 80 0 0.7998406
-0.8366235 -0.047205158 -0.0089844335 0 200 255 0.32469153
0.6744747 -0.13385408 -0.28861627 0 252 255 0.3736925
0.8373217 -0.23986213 0.29220098 0 196 255 0.32146758
-0.76820385 -0.08027428 -0.25487357 128 0 0 1.0
-0.42547566 -0.12279483 0.40342358 0 0 252 0.12499833
0.25517905 -0.049334444 -0.25795886 0 0 128 0.0
-0.43905526 0.28324705 -0.3353302 106 255 150 0.48217145
-0.5959054 -0.2158099 0.41995817 128 0 0 1.0
0.16238129 -0.0038155147 0.053764336 0 0 128 0.0
0.5684015 0.21860804 0.023628414 0 0 224 0.09482959
-0.3217055 0.15262187 -0.32496622 0 0 128 0.0
0.6599825 -0.089334615 0.30339056 255 0 0 0.8753702
-0.568442 -0.25483233 0.4067479 0 100 255 0.22484918
0.68238354 -0.18891135 -0.28861627 0 136 255 0.26092643
-0.1656375 0.18069369 -0.32879025 0 0 128 0.0
0.53574514 -0.016091501 -0.34295654 255 104 0 0.77604705
-0.578806 0.03488101 0.38867068 128 0 0 1.0
-0.80581397 -0.11610278 0.2136564 128 0 0 1.0
0.7578863 0.034164008 -0.23329824 128 0 0 1.0
-0.07996629 0.15585925 -0.32227203 0 0 128 0.0
-0.5064537 -0.11786271 0.30115265 128 0 0 1.0
0.40438122 -0.09126835 -0.18454193 0 172 255 0.29452193
0.54528356 -0.09550519 -0.15729575 0 116 255 0.24000008
-0.09391529 -0.14945436 -0.29248375 0 32 255 0.15829743
0.18193595 -0.011702565 0.15996793 138 255 118 0.51161337
-0.4607175 -0.29700524 -0.35058287 146 255 110 0.5213552
0.5548001 0.14921066 -0.047876507 0 0 212 0.08451367
0.4542239 -0.09278927 -0.15998995 82 255 174 0.45590022
-0.32752845 -0.07471207 0.26410744 0 196 255 0.3186118
0.10910566 -0.17237678 0.36296713 0 0 128 0.0
-0.43475324 0.39036322 0.083530895 0 104 255 0.22838767
-0.033925906 0.17250244 0.33117995 0 76 255 0.20350647
0.33943796 0.22677752 0.09033158 0 0 128 0.0
0.39745018 0.06842814 0.111428894 0 0 184 0.058765393
-0.6359273 -0.01793833 0.3904306 0 176 255 0.29867452
0.57681 -0.09739549 -0.027018188 0 96 255 0.22064772
-0.7580137 -0.148607 0.14432421 0 12 255 0.13899733
0.12346749 -0.08611896 -0.11944661 0 0 128 0.0
-0.5814784 -0.24388169 0.31579694 114 255 142 0.48749962
0.61654943 -0.15121429 0.11557883 128 0 0 1.0
0.716778 -0.2610681 -0.3487143 128 0 0 1.0
-0.8844455 0.20087846 0.025410064 128 0 0 1.0
-0.78204423 -0.108889274 0.21363465 54 255 202 0.4296035
0.667913 0.016347528 0.23247233 255 136 0 0.7436652
-0.5535152 -0.25155148 0.412636 54 255 202 0.4284126
-0.37013593 0.0013338862 0.4279321 0 0 132 0.006211187
-0.6094199 -0.11177903 -0.26880085 0 76 255 0.20279486
-0.46599728 -0.08183866 0.0066375774 0 0 176 0.050388575
0.08620497 0.37098238 0.07138527 0 0 128 0.0
0.39760226 0.087113716 0.2311035 128 0 0 1.0
0.05719887 0.034011915 0.3095177 0 0 156 0.030984277
0.8246981 -0.13489701 -0.2990237 255 244 0 0.6357794
0.6968757 0.03664093 0.24828988 144 0 0 0.9872609
-0.30080375 -0.13420172 0.2771004 0 104 255 0.22969766
0.33919898 0.17841232 -0.25824133 0 0 128 0.0
0.88890254 -0.03684118 0.37194058 128 0 0 1.0
0.75377977 -0.2401663 0.3562751 128 0 0 1.0
0.8614174 -0.16940013 -0.30701938 128 0 0 1.0
-0.20294347 -0.07419062 -0.098740384 0 228 255 0.35024586
-0.6108756 -0.1922791 -0.22764912 0 0 172 0.04435471
-0.3824988 0.053327587 0.3027388 0 0 160 0.03291042
0.22074111 -0.09055135 -0.07614387 0 0 128 0.0
0.741569 0.027558872 0.2922879 126 255 130 0.50194645
-0.28854948 0.27720687 0.34139183 0 0 128 0.0
0.6532036 0.094826944 -0.12248845 0 0 188 0.0595641
0.6916611 -0.07555944 0.34091383 172 0 0 0.9596298
-0.6589584 0.37428492 -0.046290405 50 255 206 0.42464915
-0.5153185 -0.21289842 -0.34315205 0 168 255 0.29406726
0.06278282 -0.1727896 -0.3806536 0 56 255 0.18375999
0.41850406 -0.09809075 -0.3339831 255 232 0 0.6508277
-0.6322119 0.22679926 -0.330246 128 0 0 1.0
0.2606761 0.022061838 -0.27423272 0 8 255 0.13553014
-0.7886711 -0.07960074 0.06773506 0 84 255 0.20894954
-0.106886566 0.26921117 -0.33111507 0 0 128 0.0
0.6196999 -0.13954668 0.31749168 0 160 255 0.283435
-0.11081922 0.38616982 -0.09504673 0 184 255 0.30866686
0.6422313 -0.12112182 -0.28861627 128 0 0 1.0
0.5476518 -0.03751473 0.18582356 210 255 46 0.58224094
0.28060013 0.034707192 0.27788264 0 0 196 0.07029137
0.049789824 -0.0919419 -0.16453098 0 40 255 0.1651854
-0.11681599 0.38664785 0.13874026 0 0 132 0.005681879
-0.09495821 -0.08559751 0.18571493 0 0 156 0.028955925
-0.004876353 -0.08737914 0.16348778 255 56 0 0.82103926
-0.517991 -0.2286508 0.28020746 0 0 128 0.0
0.0469218 0.038118396 0.17161384 0 112 255 0.2359711
-0.6245422 -0.076949984 0.24792051 255 240 0 0.639228
-0.32357407 -0.04255549 0.2855741 236 0 0 0.8969507
0.58317614 0.12029147 0.11723012 0 240 255 0.36168268
0.76866305 -0.1253804 -0.33087608 128 0 0 1.0
-0.17639257 -0.11821035 -0.29367873 174 255 82 0.54587454
0.85924464 -0.17474508 -0.39916536 212 0 0 0.91811126
-0.85845953 0.15522915 -0.0024879368 0 200 255 0.32204366
0.19210438 -0.07988319 -0.26823595 0 0 128 0.0
-0.36924508 0.016543074 0.412158 0 0 140 0.0136745805
0.89148813 -0.094136365 0.26901785 128 0 0 1.0
-0.43972883 -0.2941372 -0.42638978 0 0 248 0.11856949
-0.49865356 -0.08192557 0.02108631 0 0 252 0.12368294
-0.78732395 0.3106888 0.3202076 210 255 46 0.5838973
0.72105825 0.037575208 -0.2630648 0 244 255 0.36694238
-0.5272903 -0.18534805 0.28592175 146 255 110 0.5193857
0.8936826 -0.124945834 0.33317888 128 0 0 1.0
0.16238129 -0.0038155147 0.053764336 0 0 128 0.00078456005
0.03879575 0.040204227 0.044095635 0 40 255 0.16565453
0.95984256 -0.10986701 0.05461171 128 0 0 1.0
-0.52161944 0.0037456262 -0.2892029 0 0 248 0.11918592
-0.09713095 -0.085293315 0.10441094 0 0 128 0.0
-0.8375143 -0.0040327883 0.084008895 128 0 0 1.0
0.6549418 -0.0044238786 0.3205118 128 0 0 1.0
-0.48566058 -0.022674909 -0.3493444 0 0 172 0.04432933
-0.50113046 -0.08070883 -0.095502995 0 0 128 0.0
0.08902953 0.014522425 0.15540518 0 0 164 0.03853606
0.76362234 -0.109584555 -0.28861627 26 255 230 0.40357703
0.07636245 -0.018524975 0.060543295 0 80 255 0.20680645
0.62610954 -0.15595086 0.4165687 128 0 0 1.0
-0.34471485 -0.24642383 -0.36105546 0 168 255 0.29112774
-0.56776845 -0.2681947 -0.41241908 0 244 255 0.36547357
-0.1253114 0.09632614 0.32090288 0 124 255 0.25070372
0.6599825 -0.089334615 0.30339056 110 255 146 0.48275068
0.4661957 0.05615215 -0.14156511 0 0 224 0.094775304
0.80131936 -0.10549981 0.007919495 128 0 0 1.0
0.5548001 0.14921066 -0.047876507 0 184 255 0.30824772
0.3975588 0.05723852 -0.24283658 0 0 248 0.12006972
0.46415335 0.1260927 -0.13048413 0 0 128 0.0
0.027258493 -0.08177347 0.08014142 0 0 140 0.015011839
-0.31768593 -0.021827538 -0.2839666 54 255 202 0.43097666
0.13031162 0.3642034 -0.14165202 0 0 128 0.0
0.6668049 -0.21528843 0.39425462 126 255 130 0.49929792
0.76157993 -0.10847646 -0.3640973 230 255 26 0.6002142
0.6771255 0.12754843 0.1115158 128 0 0 1.0
0.14247897 -0.0021425022 0.29135358 0 0 152 0.02361212
-0.56776845 -0.2681947 -0.41241908 0 240 255 0.361914
0.1401976 -0.010464104 0.15996793 0 0 128 0.0
0.7907381 -0.11545096 0.34163082 128 0 0 1.0
-0.55644846 0.011502314 0.42738894 122 255 134 0.49542266
0.82343787 -0.22919397 0.42304343 212 0 0 0.919305
-0.09495821 -0.08559751 0.18571493 128 0 0 1.0
-0.5690286 -0.25437602 0.37604707 144 0 0 0.9879173
0.2811433 0.32824457 0.21572049 0 0 128 0.0
0.79521394 0.11685854 0.087941565 255 132 0 0.7463746
-0.39922893 0.015326338 -0.3416746 0 0 132 0.005766365
0.021000996 -0.08792234 0.17041883 0 0 160 0.03517743
-0.62208694 -0.10549981 -0.34399945 0 0 128 0.0
0.64362174 -0.009573276 -0.21024546 0 76 255 0.20324236
-0.43225458 -0.07297388 -0.20844208 0 0 212 0.08512686
0.9455242 -0.096048385 0.31106037 252 0 0 0.8820295
0.73752767 -0.19875388 0.30339056 128 0 0 1.0
-0.409028 -0.15121429 0.08042388 0 180 255 0.3057227
-0.55853426 0.3791953 0.29122326 0 0 128 0.0
-0.006853545 -0.016308775 0.29502553 0 0 240 0.11239588
0.32640153 -0.15121429 -0.06204278 0 0 128 0.0
0.10788893 0.0143703325 0.09528542 0 0 128 0.0008415374
-0.5995991 -0.046422977 -0.29076728 0 92 255 0.21726888
-0.42577982 -0.079144455 0.2772308 0 0 232 0.105081394
0.80955404 0.015174246 -0.39925224 128 0 0 1.0
0.23894869 0.015782615 -0.27323326 0 0 236 0.10663645
-0.059325244 -0.10035041 0.29098424 86 255 170 0.46273535
-0.54651904 -0.0020121387 -0.3917128 0 0 128 0.0
0.67910266 0.16883051 -0.00985353 242 255 14 0.61269873
-0.61063665 -0.079991825 0.39577556 128 0 0 1.0
-0.17265545 0.38799492 0.2593057 0 0 128 0.0
-0.42391124 -0.28918338 0.3839993 128 0 0 1.0
-0.23861988 -0.1306167 -0.041727643 0 0 128 0.0
0.13908948 0.3627694 -0.16274934 0 0 128 0.0
-0.1367835 0.3367834 0.3481708 0 0 128 0.0
0.7690107 -0.15121429 0.11308018 255 8 0 0.8669327
-0.29109156 -0.031300694 -0.33624274 0 0 144 0.016712844
-0.78204423 -0.108889274 0.21363465 128 0 0 1.0
0.032951076 -0.0879006 -0.079294346 0 0 136 0.011073414
0.83254164 -0.07920965 -0.28861627 128 0 0 1.0
0.6802325 0.028362788 -0.23529717 255 148 0 0.7301066
0.5114105 0.10753748 -0.019152863 0 80 255 0.2059289
-0.6856396 -0.07508143 -0.22669311 30 255 226 0.4071633
0.077209815 -0.08405485 -0.03316704 0 8 255 0.13514255
-0.5432164 0.07018806 0.33278778 0 100 255 0.22422406
-0.31029862 -0.14849837 -0.3449989 234 255 22 0.6048392
-0.00081332476 0.13986787 0.13361259 0 0 128 0.0
0.7951488 0.09699968 -0.09252634 0 184 255 0.30813333
-0.68101174 -0.13943803 0.30249977 0 20 255 0.14689338
0.47703767 0.08207296 0.16746391 0 40 255 0.16759102
0.54506624 0.10332237 0.04800657 0 96 255 0.22195439
-0.29763153 -0.07608089 -0.3671174 0 36 255 0.16436845
0.7332474 -0.10673827 0.25841486 252 0 0 0.88158876
-0.6851834 -0.07988319 0.08724628 216 0 0 0.9164725
-0.3275719 -0.0638049 0.33459118 0 0 128 0.0
-0.29109156 -0.031300694 -0.33624274 0 0 128 0.0
-0.6988717 0.081486315 0.31010437 228 0 0 0.9037307
0.9375285 -0.10363126 0.18419401 128 0 0 1.0
-0.3275719 -0.0638049 0.33459118 0 116 255 0.24069077
-0.3104507 0.28735355 0.34221748 0 0 128 0.0
-0.83492875 -0.05789505 0.07857704 166 255 90 0.53839654
-0.40772432 -0.11156175 -0.28822517 0 148 255 0.27257854
0.5086945 0.11027515 0.053264607 0 192 255 0.31424373
0.7262729 -0.13637447 -0.30541155 128 0 0 1.0
-0.44872394 0.025842408 -0.37561283 0 36 255 0.16438763
-0.5783497 0.38564837 -0.2557644 0 0 128 0.0
-0.6402076 0.3778048 0.28383592 0 192 255 0.31705716
-0.329158 -0.24646726 -0.3591652 0 0 244 0.11665393
-0.41074446 0.010024849 0.31762204 14 255 242 0.38912886
-0.8731038 0.282856 -0.024497807 0 156 255 0.27996427
0.65189993 0.05632597 -0.33241874 255 208 0 0.6742159
0.80357903 0.023952123 0.11481837 128 0 0 1.0
-0.15531698 0.3877994 -0.09339544 0 36 255 0.16221173
-0.365508 0.04659209 0.32205442 0 28 255 0.1529838
0.7447412 0.05539169 -0.39703605 0 212 255 0.33500743
-0.020324543 -0.07960074 -0.17085366 0 60 255 0.18687516
0.667913 0.016347528 0.23247233 0 76 255 0.20264584
-0.42984283 0.025342677 -0.33328784 0 0 184 0.056971114
-0.44872394 0.025842408 -0.37561283 0 0 128 0.0
-0.7829785 0.046939727 0.28650838 255 68 0 0.8091163
0.39616823 0.04859101 -0.012699821 0 0 196 0.06763601
0.23694977 0.33148193 0.17107065 0 0 128 0.0
0.28494564 0.23401275 0.0036391942 0 0 128 0.0
-0.3903424 0.1917964 0.33543852 0 0 128 0.0
-0.46662733 -0.16664076 -0.29808939 0 224 255 0.34822023
-0.20031445 -0.1720726 -0.38074052 0 40 255 0.16622816
-0.84125143 -0.047943886 0.24307531 128 0 0 1.0
0.17509182 -0.09068171 -0.041966647 0 0 128 0.0
-0.39638263 -0.08186038 -0.0568282 170 255 86 0.5416386
0.5127141 -0.15121429 0.06108648 0 0 188 0.058909833
0.60848856 0.034989648 -0.31575382 128 0 0 1.0
-0.8388614 -0.04246858 -0.069343194 198 255 58 0.56936383
-0.6247812 -0.07992664 -0.100152664 0 0 252 0.12297224
-0.5720704 -0.013744943 -0.29215783 0 0 200 0.07112558
0.62632674 0.04205106 0.3147323 128 0 0 1.0
-0.5268123 -0.28249133 -0.41615617 0 168 255 0.29304892
0.32031783 -0.15803668 0.40264142 0 0 168 0.04227368
0.04948564 0.37619695 0.0032263733 0 0 212 0.085388936
0.6610254 -0.076102614 -0.26584592 128 0 0 1.0
-0.73950195 -0.07618953 -0.23227707 0 32 255 0.1595842
-0.49654603 -0.11784097 0.3316797 0 96 255 0.22305316
0.101153426 -0.085097775 -0.20822482 0 0 128 0.0
-0.2210424 0.0702967 0.31373286 0 4 255 0.132394
0.71075946 -0.06851975 -0.012091453 128 0 0 1.0
0.32640153 -0.15121429 -0.06204278 0 44 255 0.16876365
-0.7532119 -0.13398445 -0.1885615 255 236 0 0.6453283
-0.365508 0.04659209 0.32205442 0 0 228 0.0982895
0.41850406 -0.09809075 -0.3339831 0 180 255 0.30430937
-0.18012968 0.00750447 -0.2914191 0 56 255 0.18128209
0.26195803 -0.086618684 0.2540042 0 0 180 0.054528035
-0.6322119 0.22679926 -0.330246 0 180 255 0.30409983
0.6145723 -0.050247 0.34230438 0 164 255 0.28701586
-0.655721 -0.05537467 -0.3677258 128 0 0 1.0
0.3589492 0.20005281 -0.22562848 0 0 128 0.0
-0.47390604 -0.15990525 0.28685603 30 255 226 0.40684792
0.07358134 -0.09283273 0.13839261 0 0 148 0.021886503
-0.006049632 -0.08025256 -0.10769208 0 0 248 0.11882176
-0.010525479 0.14227962 -0.32148984 0 0 128 0.0
-0.6407943 -0.079144455 0.15490545 0 80 255 0.20555001
0.494789 0.17480555 0.011222062 0 0 212 0.08339758
0.23223491 -0.09170289 -3.273858e-05 0 0 148 0.020885997
-0.50113046 -0.08070883 -0.095502995 0 12 255 0.13866399
-0.8843803 0.20339884 0.25272226 0 224 255 0.34635574
0.5327685 0.10766784 -0.1105601 0 0 208 0.08111387
-0.21389408 -0.16303399 -0.30024043 0 0 180 0.05228825
-0.5849548 -0.0718875 0.077295125 255 244 0 0.63575226
-0.48763776 -0.09583111 0.3497569 128 0 0 1.0
0.9507823 -0.09189845 0.03586095 202 255 54 0.57514983
-0.21067843 0.36568087 -0.3089966 0 0 128 0.0
0.26954088 0.19914027 -0.25341782 0 0 128 0.0
-0.31768593 -0.021827538 -0.2839666 0 0 188 0.062656924
-0.5748516 -0.07912273 -0.1737434 0 0 184 0.05862827
0.010354566 0.3776744 -0.12774648 255 136 0 0.7415999
-0.3658556 0.123029135 -0.32553113 0 0 200 0.07212978
0.8086198 -0.06389181 -0.33554748 128 0 0 1.0
-0.5605984 0.16300757 -0.3235105 0 0 255 0.1262204
0.3073683 -0.15668958 -0.29704648 0 232 255 0.3556528
0.015938511 0.034946196 0.07642603 0 0 128 0.0
0.34204528 -0.092159174 0.20490023 0 0 128 0.0
-0.013415224 0.3804338 -0.051570166 0 4 255 0.13279675
0.92483974 -0.0978083 -0.35049593 128 0 0 1.0
-0.6366878 -0.08109993 -0.016263116 0 112 255 0.23704167
-0.28883192 -0.117102236 -0.37094143 0 116 255 0.24260972
0.3978847 0.20285565 0.20476986 0 0 128 0.0
0.14452136 -0.08718361 -0.24505278 0 0 128 0.0
-0.8517457 0.108015485 0.020173756 0 196 255 0.3211459
-0.65357 0.21958576 -0.32876852 0 88 255 0.21327208
0.3472164 -0.15045384 -0.38430378 14 255 242 0.3912262
0.71634346 -0.17600526 -0.27203825 222 255 34 0.5928917
0.7483697 0.057042975 0.26769245 128 0 0 1.0
0.3162548 -0.02712903 -0.24865954 0 0 240 0.11204314
0.7447412 0.05539169 -0.39703605 128 0 0 1.0
0.39781952 0.19833635 0.18273827 0 84 255 0.20804635
0.022869555 -0.102197245 0.012590889 0 0 128 0.0
-0.2401408 -0.14862873 0.19557917 0 88 255 0.21233289
-0.19479568 0.11535935 0.32548738 0 0 128 0.0
-0.28546417 -0.08774851 0.27219 255 140 0 0.7389361
0.76023287 0.026776686 -0.33511293 128 0 0 1.0
-0.27983677 -0.0909859 -0.027083369 0 0 252 0.12211217
-0.85213685 0.09319739 0.08101051 0 96 255 0.21973844
-0.5709406 -0.25483233 -0.30169615 0 196 255 0.3186312
-0.23177575 0.02701569 0.30302122 122 255 134 0.49473974
-0.3373275 -0.078905456 -0.26645428 0 0 128 0.0
0.7120197 -0.10082842 0.14554094 128 0 0 1.0
0.65189993 0.05632597 -0.33241874 255 72 0 0.80467665
-0.6263021 -0.010659649 0.39534098 128 0 0 1.0
-0.5538412 -0.2569399 0.38925734 128 0 0 1.0
0.2918984 -0.00468461 -0.25906697 0 0 220 0.09024533
-0.6568726 0.33222067 0.3417612 255 8 0 0.86877626
-0.6112016 -0.19812378 -0.39538476 0 0 228 0.101825215
0.015417052 -0.08123029 0.16014177 0 0 152 0.026088322
-0.07814118 -0.08538023 -0.0071810577 0 0 128 0.0
0.79551816 -0.07184404 0.033210207 0 176 255 0.2983413
-0.63475406 -0.15577704 0.25498194 152 0 0 0.9769607
-0.8795133 0.16113903 -0.014611834 255 40 0 0.8387569
0.7868055 -0.24557643 0.36264125 204 0 0 0.9258879
0.2565479 0.34414902 0.118381664 0 0 128 0.0
-0.5633578 -0.0909859 0.040879983 0 232 255 0.35535675
0.6627854 -0.22426185 0.4038147 0 164 255 0.2898532
0.63656044 0.10427837 -0.16570427 220 0 0 0.91359425
-0.68585694 -0.07751491 -0.24064212 6 255 250 0.3804563
0.54289347 0.13059026 0.08811537 22 255 234 0.3966432
-0.28885365 -0.07475552 -0.23686154 0 0 172 0.046826866
0.8664364 0.034098826 -0.27716592 128 0 0 1.0
-0.49085343 0.18371381 0.33537334 0 88 255 0.21244226
0.39760226 0.15107921 0.1318092 0 36 255 0.1632942
-0.3841501 -0.07310424 -0.19016932 0 0 136 0.0083305575
-0.8743857 0.28654966 0.04946231 255 8 0 0.8690682
-0.33409014 -0.203925 0.27119058 255 164 0 0.7159394
0.06573774 -0.17202915 0.30249977 0 0 128 0.0
0.39482117 -0.09011681 -0.22180445 0 44 255 0.17178841
0.494789 0.17480555 0.011222062 0 0 128 0.0
0.8015367 0.021670746 0.27329814 128 0 0 1.0
-0.52574766 0.028797336 -0.3914521 0 220 255 0.34356043
-0.007179458 -0.0025987783 -0.29061517 0 0 180 0.054117236
-0.726183 0.2794665 0.32731247 118 255 138 0.49180487
-0.673016 -0.07799291 0.22069606 0 172 255 0.29720736
-0.8333643 -0.062197074 0.05130914 128 0 0 1.0
0.29565725 -0.10904138 0.02871263 0 0 128 0.0
-0.021932371 -0.17239852 0.37039796 0 0 136 0.008384774
-0.07616399 -0.08605377 -0.19610092 0 0 200 0.0722099
0.4963968 -0.031865604 -0.09504673 204 0 0 0.92768097
-0.13763086 0.044158615 0.31097344 0 148 255 0.2741183
0.6067286 -0.032278426 -0.32148984 0 96 255 0.2219385
0.6174403 0.131807 -0.13026686 128 0 0 1.0
-0.5064537 -0.11786271 0.30115265 128 0 0 1.0
0.019088985 -0.09737376 0.09606761 0 0 128 0.0
0.72459984 0.037140664 0.28846383 128 0 0 1.0
-0.43957672 -0.20933512 0.3474755 0 0 228 0.09936259
-0.6199577 -0.094962016 0.3599036 128 0 0 1.0
-0.22608316 0.38855985 0.053416695 0 0 240 0.11241338
-0.7532119 -0.13398445 -0.1885615 128 0 0 1.0
-0.38688776 -0.082490474 0.02560561 0 196 255 0.3206632
0.12314157 0.014978701 0.105975315 0 0 128 0.0
0.13328828 -0.01359285 0.09293886 0 0 140 0.0152035095
0.4663261 0.087396175 -0.14095674 134 255 122 0.5064255
0.18615106 0.3458655 -0.290789 0 0 128 0.0
0.8531175 -0.2049679 0.36563963 128 0 0 1.0
-0.60296685 -0.21698315 -0.39427668 0 244 255 0.36773387
-0.5189687 0.018194359 -0.34867084 0 0 136 0.010318953
-0.14847283 0.34862486 0.34078348 0 0 128 0.0
-0.7491489 0.30656058 -0.32020792 255 12 0 0.86546785
0.7108464 0.031839173 0.41393965 128 0 0 1.0
-0.55903405 -0.08522814 0.35551465 0 68 255 0.19448526
0.77372557 -0.2513994 -0.24131566 194 255 62 0.5678066
0.8535738 -0.08885661 0.3517341 128 0 0 1.0
-0.7677258 -0.080426365 0.018674565 255 64 0 0.81480724
-0.41700193 0.28972185 0.34291276 0 0 128 0.0
-0.39638263 -0.08186038 -0.0568282 0 0 160 0.034462076
0.0064870855 -0.091159716 -0.24240205 0 0 128 0.0
-0.600403 0.18851556 0.33163625 66 255 190 0.440088
-0.29567605 0.3892986 0.21109256 178 255 78 0.5525584
0.27710202 0.22510453 -0.18021818 0 0 128 0.0
-0.18501835 0.3881253 0.24001175 0 0 128 0.0
-0.6293874 -0.18678206 0.39147353 106 255 150 0.48224345
-0.57545996 -0.26697797 -0.3121036 128 0 0 1.0
0.07699255 -0.1085851 -0.26873568 0 0 184 0.056972418
-0.39649126 -0.077623546 -0.031515762 0 0 228 0.099259235
0.010506657 -0.040621754 -0.28437942 0 0 176 0.049443863
0.19188711 0.03160017 0.024823422 0 0 128 0.0
0.78743553 0.072186984 -0.3364383 128 0 0 1.0
0.7958006 -0.105239086 0.34617186 255 60 0 0.81583524
-0.87634116 0.31696802 0.11851203 255 72 0 0.8062677
-0.38506266 0.025081947 0.39416772 0 216 255 0.34002835
0.3589492 0.20005281 -0.22562848 0 0 128 0.0
-0.32755017 -0.1967984 0.32774702 0 132 255 0.25759178
0.1712678 0.12535398 -0.30241317 0 0 128 0.0
-0.8789919 0.24324693 0.0017271817 128 0 0 1.0
-0.4875943 -0.0909859 -0.064606614 0 0 148 0.021036187
0.63017255 0.09882479 0.027387258 128 0 0 1.0
0.689358 0.15644589 -0.07927262 0 128 255 0.25459573
-0.60598695 0.38369292 0.263825 0 100 255 0.22695489
-0.034512546 0.15268706 0.12928882 0 60 255 0.18617988
-0.611723 -0.097982116 0.32498762 128 0 0 1.0
-0.6875517 0.14884129 0.31944716 255 252 0 0.62963134
-0.15084112 -0.060002603 0.28759477 128 0 0 1.0
-0.7883886 0.34117234 0.3103868 128 0 0 1.0
-0.15942344 0.38784283 -0.1275944 128 0 0 1.0
0.54289347 0.13059026 0.08811537 0 100 255 0.22569206
0.040403582 0.093088746 0.0469202 0 0 144 0.018582918
-0.042421326 -0.07860128 0.19253734 0 0 220 0.09063024
0.3644245 -0.13550538 0.35516703 0 0 200 0.07095385
-0.7684211 -0.07970937 -0.06045668 142 255 114 0.51443315
-0.73926294 -0.010942104 -0.2761013 142 255 114 0.5138166
-0.681707 0.26506126 0.33483016 0 160 255 0.28362623
0.728337 -0.10071978 0.14558439 128 0 0 1.0
0.7488259 -0.119101174 0.41819826 58 255 198 0.43368307
0.21785137 0.0133708725 0.06360686 0 0 128 0.0
-0.28070587 -0.15121429 -0.001684022 0 0 128 0.0
-0.6229778 -0.20205644 -0.36420593 128 0 0 1.0
-0.48896316 -0.21765672 -0.28822517 0 108 255 0.23297583
0.6340183 -0.17526653 0.2899848 190 255 66 0.5616234
-0.3438892 0.29708746 -0.3328967 0 0 128 0.0
-0.17639257 -0.11821035 -0.29367873 0 0 252 0.122125804
-0.6818373 -0.11388659 -0.1885615 0 112 255 0.2373506
-0.45274356 -0.016395684 -0.2724728 0 0 136 0.008631786
-0.5938848 0.3787825 -0.016849758 0 0 180 0.052158203
-0.8724955 0.2381627 0.2053348 6 255 250 0.38277945
0.879386 -0.058090594 -0.31586245 128 0 0 1.0
-0.5724833 -0.14754236 -0.28227186 0 0 252 0.12495162
0.1497142 -0.08863933 0.012243249 0 28 255 0.15374264
-0.093524195 -0.15054072 0.29956657 0 0 220 0.093066595
-0.8569603 0.13337138 0.05141778 255 0 0 0.8777313
0.774486 -0.23453891 -0.31627527 128 0 0 1.0
-0.114599794 0.29600105 -0.33524328 0 0 128 0.0
-0.04283414 -0.015157225 -0.2859438 0 104 255 0.22986045
-0.037424017 0.2460063 0.057849094 0 136 255 0.25882363
0.29407114 0.3301783 0.1284849 0 0 128 0.0
0.04459697 -0.08255567 0.11334091 0 16 255 0.14278194
-0.5834339 -0.07197442 -0.19972938 0 0 144 0.017401284
-0.83536327 -0.016851962 -0.072015665 128 0 0 1.0
-0.3903424 0.1917964 0.33543852 0 0 128 0.0
0.76023287 0.026776686 -0.33511293 255 192 0 0.6891473
0.6525301 -0.025629835 0.20355314 255 8 0 0.86709416
-0.4296256 -0.2851421 0.43340743 0 128 255 0.25169125
-0.8220444 -0.062197074 -0.2553733 182 255 74 0.55552876
0.39618996 0.063691564 -0.0031180317 0 0 148 0.02268921
-0.19681634 0.32042268 0.34799695 0 0 128 0.0
0.63310575 0.03188263 0.26293418 255 52 0 0.82391626
-0.44116285 -0.16716221 -0.28822517 0 72 255 0.19756286
0.7402436 -0.10178441 -0.3358734 0 144 255 0.26766238
-0.042421326 -0.07860128 0.19253734 0 188 255 0.31052327
-0.7752435 0.24344246 -0.3075843 110 255 146 0.48363632
0.6564844 0.11790147 -0.02614909 0 196 255 0.31865084
0.8661105 -0.06765065 -0.23838247 128 0 0 1.0
0.63656044 0.10427837 -0.16570427 128 0 0 1.0
0.63212806 -0.020393532 0.41304886 128 0 0 1.0
-0.44496512 0.017129714 0.29541662 0 0 232 0.103516474
0.426956 -0.10410924 -0.37161496 82 255 174 0.457109
-0.25619736 -0.10991047 -0.34888813 0 100 255 0.22589342
0.92190653 -0.1180148 -0.1524288 128 0 0 1.0
0.60036254 0.03036171 0.16498697 255 156 0 0.7216149
-0.64505285 0.1600309 -0.31833935 230 255 26 0.602056
-0.36492136 0.031078713 0.39849147 0 0 248 0.11972757
0.78515416 -0.06997549 0.34210882 236 0 0 0.8959438
0.70217717 -0.23484312 0.42658502 128 0 0 1.0
0.6552242 0.21784756 -0.01732776 0 52 255 0.17982924
0.86087424 -0.18960662 0.28416184 128 0 0 1.0
-0.52161944 0.0037456262 -0.2892029 0 48 255 0.17452691
-0.4672357 0.029058063 -0.25630757 0 136 255 0.25891858
-0.104865916 0.3320903 0.34734514 0 0 128 0.0
0.44331676 0.0072002863 -0.11679586 0 0 255 0.12695248
0.9380935 -0.09189845 -0.3114952 128 0 0 1.0
0.06278282 -0.1727896 -0.3806536 0 0 128 0.0
-0.87584144 0.28500697 0.107387595 255 72 0 0.80768514
0.3975588 0.05723852 -0.24283658 0 0 200 0.07276518
0.618179 0.22123705 0.06225976 0 140 255 0.2635497
0.73068357 -0.15121429 0.101608105 128 0 0 1.0
-0.329158 -0.24646726 -0.3591652 0 0 248 0.119663544
0.81613743 -0.23658131 0.2463127 0 212 255 0.33365807
0.18615106 0.3458655 -0.290789 0 0 128 0.0
0.27086625 0.077684015 -0.28085956 0 0 128 0.0
0.60166615 -0.0909859 -0.17346095 0 0 244 0.11447205
-0.64144605 0.07131788 0.3156231 0 148 255 0.2742016
0.63708186 -0.036797725 0.41513467 255 200 0 0.6819805
0.8554858 -0.10145851 0.11755603 128 0 0 1.0
0.58317614 0.12029147 0.11723012 128 0 0 1.0
0.5548001 0.14921066 -0.047876507 0 52 255 0.17733878
0.63790745 -0.020914989 -0.10528034 0 116 255 0.24270271
0.39527744 -0.033473432 0.0017706369 0 0 128 0.0
-0.3296795 -0.019328887 0.3471496 46 255 210 0.42043397
-0.43801236 -0.11542924 -0.35264695 128 0 0 1.0
-0.39416644 0.29895598 0.3349388 0 0 128 0.0
-0.8259336 0.05069857 -0.2651941 0 144 255 0.27018246
-0.52642125 -0.11477742 -0.26047924 0 0 156 0.028322404
-0.6626955 0.1478853 0.3219675 255 152 0 0.72672194
0.88890254 -0.03684118 0.37194058 128 0 0 1.0
0.44985667 -0.09263718 0.1849762 0 0 164 0.038675763
-0.2085926 0.3869303 0.28055507 0 0 128 0.0
0.39688525 -0.08046983 0.17274366 0 72 255 0.19826864
-0.3679197 0.015304612 0.3355037 0 0 140 0.014337499
0.4508779 0.12650552 0.1065185 255 36 0 0.84257114
0.7988859 0.069079965 -0.094242804 255 120 0 0.7603823
-0.50838745 0.013349144 -0.35375506 0 28 255 0.1563628
-0.0899609 -0.085336775 -0.069386646 0 0 176 0.049680658
0.889424 -0.13661347 0.28759477 128 0 0 1.0
-0.36246616 -0.081447564 0.10484549 0 0 128 0.0
0.29270232 0.32294306 -0.21771969 0 0 128 0.0
0.5476518 0.12967773 0.032514926 0 8 255 0.13617152
-0.24357373 -0.15121429 0.02021721 0 0 128 0.0
-0.49565518 -0.14017676 0.3665739 94 255 162 0.46747068
-0.46275988 -0.073517054 -0.26469436 0 0 128 0.0
0.85924464 -0.17474508 -0.39916536 128 0 0 1.0
0.3963638 -0.059785336 -0.10743135 0 0 232 0.10586217
-0.043485966 -0.086314514 -0.07405804 0 0 128 0.0
-0.31490484 -0.007943721 0.3981004 0 60 255 0.18805565
-0.4012713 0.23018874 -0.33346164 0 0 128 0.0
0.10741092 -0.08540195 -0.09593754 0 0 156 0.029873928
-0.496785 0.028123787 0.310213 0 136 255 0.26175952
-0.45152682 -0.1677923 0.365053 222 255 34 0.5941202
-0.7857813 0.35514307 -0.28805137 0 120 255 0.2464596
0.080490656 -0.15853643 0.28066373 0 0 168 0.03957938
-0.4256929 -0.073125966 0.22869176 0 0 220 0.09302511
-0.39922893 0.015326338 -0.3416746 0 0 128 0.0
0.6169623 -0.04442405 -0.08857195 0 48 255 0.17547926
0.31857967 0.22823326 0.09611107 0 0 140 0.013740916
0.9047419 -0.06658602 0.25237462 204 0 0 0.92694074
-0.2208034 -0.075624615 0.0592831 6 255 250 0.38404837
-0.6147431 0.3582501 -0.31160387 0 236 255 0.36040184
0.0049444404 -0.083033666 -0.023585254 0 0 128 0.0
0.72924954 -0.113560684 0.34717134 0 216 255 0.34111506
0.7953226 -0.03942674 0.085834 128 0 0 1.0
-0.3564042 -0.0909859 0.019869572 0 0 252 0.12500454
-0.17956477 0.34712568 0.34499857 0 0 128 0.0
-0.30080375 -0.13420172 0.2771004 0 0 224 0.094388135
0.70089525 -0.036102448 -0.18580213 128 0 0 1.0
0.36159992 0.13645667 0.26508516 128 0 0 1.0
0.89148813 -0.094136365 0.26901785 128 0 0 1.0
-0.48998433 0.068623684 0.39010468 0 48 255 0.17432067
-0.13128644 -0.14689054 -0.29443923 0 0 140 0.014391669
0.6355826 -0.011420109 0.4040754 255 248 0 0.6350131
-0.19851106 -0.09202881 0.19875138 0 248 255 0.3715693
0.18193595 -0.011702565 0.15996793 0 0 152 0.024195597
0.51323557 0.17545737 0.00011935296 0 32 255 0.16066416
0.19599359 -0.11692843 0.2607614 0 0 128 0.0
0.79530084 -0.25563622 0.3889966 50 255 206 0.42452806
-0.48763776 -0.09583111 0.3497569 0 64 255 0.18972676
-0.42571464 -0.23844984 -0.28822517 0 0 252 0.12427446
-0.1283098 0.38751692 0.037577417 0 216 255 0.34105903
-0.11277469 -0.17242025 0.39886084 0 0 168 0.042882256
0.079838835 -0.17274615 -0.36001253 0 0 128 0.0
-0.5020865 0.027450236 0.38945287 0 48 255 0.17355922
-0.8362541 -0.030844413 0.14853932 255 200 0 0.6805958
0.13908948 0.3627694 -0.16274934 0 0 128 0.0
-0.06319273 0.21500127 -0.33335298 0 0 128 0.0
-0.440272 0.068623684 -0.3749827 0 0 132 0.0043298337
-0.64188063 0.1226815 0.32112017 58 255 198 0.4346696
-0.25619736 -0.10991047 -0.34888813 0 0 224 0.09660928
-0.42673585 -0.13100779 -0.3977965 0 28 255 0.15587212
0.29139867 0.23229629 0.08820229 86 255 170 0.4605056
0.4558752 0.21958576 0.018696293 0 0 128 0.0
0.7262729 -0.13637447 -0.30541155 255 164 0 0.71641004
0.29126832 0.33639234 -0.029038837 0 0 128 0.0
0.3949515 -0.09120317 0.20372696 0 0 128 0.0
-0.849095 -0.003185418 0.086551 128 0 0 1.0
-0.3596633 0.38997212 -0.117795326 0 0 128 0.0
-0.33558932 -0.0129193 -0.4041192 0 104 255 0.23060018
0.8141603 -7.839938e-05 -0.31699228 128 0 0 1.0
0.8006458 -0.16266462 0.34473786 255 56 0 0.8201282
-0.4647371 -0.28225234 0.3082358 255 100 0 0.7773535
-0.8629571 0.17686966 -0.0305163 0 180 255 0.30571753
0.44331676 0.0072002863 -0.11679586 0 0 156 0.029520448
0.3299431 0.2231056 -0.1352859 0 0 128 0.0
-0.8839893 0.2581302 0.19670899 38 255 218 0.4153104
0.027258493 -0.08177347 0.08014142 0 0 136 0.007967398
0.8279789 -0.09759102 0.30339056 128 0 0 1.0
-0.32316124 -0.0909859 -0.018740041 0 0 128 0.0
-0.7100178 -0.18487005 0.39740512 0 172 255 0.29535255
-0.32796302 -0.07343014 -0.16896337 0 0 180 0.0543896
-0.41170046 -0.27614692 -0.3114735 0 0 232 0.105027005
0.49176887 -0.04316386 0.2631949 255 68 0 0.81138897
0.8218735 0.06351774 0.31757858 162 255 94 0.53628993
0.2606761 0.022061838 -0.27423272 0 0 128 0.0
0.8514011 -0.20268653 0.31657913 255 232 0 0.6499718
0.8373217 -0.23986213 0.29220098 128 0 0 1.0
0.21055095 -0.090095066 -0.08292283 0 0 128 0.0
0.8157029 -0.23749383 -0.33248392 128 0 0 1.0
-0.40305296 -0.27267054 0.38011009 0 4 255 0.1320776
0.62456685 -0.22024228 -0.32498795 172 0 0 0.9576026
0.38812912 0.11701063 -0.2510061 0 0 128 0.0
-0.6147431 0.3582501 -0.31160387 128 0 0 1.0
-0.6805989 -0.07957901 0.10999488 0 0 204 0.07740418
-0.64003384 -0.071539864 -0.17296122 0 140 255 0.264774
-0.7886711 -0.07960074 0.06773506 0 96 255 0.22115791
0.03818738 0.073034346 -0.31158215 0 0 128 0.0
-0.62964815 -0.07901409 -0.16040279 0 192 255 0.31537634
0.027258493 -0.08177347 0.08014142 0 0 184 0.057467442
0.6067938 -0.08192557 0.34339076 162 255 94 0.5349614
-0.3131449 0.30756003 0.34599805 0 0 128 0.0
0.5159949 0.1369564 0.007463219 255 228 0 0.6517438
-0.871018 0.09534841 -0.016632484 128 0 0 1.0
-0.09113418 0.38540938 0.19079915 0 0 128 0.0
0.79595274 -0.024152372 -0.26528102 128 0 0 1.0
-0.6072906 0.013153599 -0.38095778 255 252 0 0.6287356
0.69518095 0.011849952 0.27631822 0 204 255 0.3289657
-0.44348767 -0.064630546 0.28526992 128 0 0 1.0
-0.5041723 0.07034015 -0.33131063 0 0 224 0.095303446
0.46217614 -0.06706401 0.33546025 0 0 128 0.0
-0.15531698 0.3877994 -0.09339544 0 120 255 0.24466552
0.60260046 0.0010514266 -0.40724796 255 208 0 0.67316717
0.4663261 0.087396175 -0.14095674 0 0 128 0.0
0.07162587 -0.1727027 0.36500955 0 0 176 0.050617404
-0.47034276 -0.1530394 0.4292575 252 0 0 0.88033754
0.7325521 -0.25707024 -0.2402293 255 120 0 0.7585564
0.39758053 0.06986215 -0.23866493 255 68 0 0.80860406
-0.0417695 0.1779126 0.104150206 0 0 172 0.046407092
0.07636245 -0.018524975 0.060543295 0 0 140 0.012341288
0.5998193 0.1386077 -0.025084447 128 0 0 1.0
-0.09713095 -0.085293315 0.10441094 0 0 128 0.0
0.11012685 0.3665717 0.17293921 0 0 144 0.019161867
-0.40787643 0.018867908 -0.3941463 0 0 196 0.06822431
-0.144953 0.19709788 0.3384369 0 132 255 0.2562866
-0.37215656 -0.18508732 -0.28487915 38 255 218 0.41475374
-0.3102769 -0.1893459 -0.40596604 0 40 255 0.16847633
0.60190517 -0.042294763 -0.26688883 240 0 0 0.89202654
0.7542361 -0.114516675 0.30339056 128 0 0 1.0
9.922548e-05 -0.15860161 -0.28257602 0 0 128 0.0
0.60848856 0.034989648 -0.31575382 0 28 255 0.1554985
0.8760399 -0.11188767 -0.38569435 128 0 0 1.0
-0.09810868 -0.077840805 0.28455293 0 0 188 0.060048074
0.37100792 -0.1297476 0.33848038 142 255 114 0.516729
0.7486087 -0.24164377 -0.34184843 250 255 6 0.6210903
0.06573774 -0.17202915 0.30249977 0 0 156 0.02795155
0.7089344 0.07057915 0.32372743 0 212 255 0.33409977
0.64362174 -0.009573276 -0.21024546 0 252 255 0.3757248
0.012266578 0.37728333 0.15701301 0 0 212 0.085165694
-0.10810329 -0.0843373 -0.27010447 0 0 128 0.0
0.64001507 -0.21809126 -0.34812766 128 0 0 1.0
-0.22510542 0.38853812 -0.136872 0 180 255 0.30388108
0.6340183 -0.17526653 0.2899848 128 0 0 1.0
-0.8623487 0.11057932 0.26117423 86 255 170 0.45935684
-0.56944144 -0.0077916286 0.39855668 128 0 0 1.0
0.6142898 0.0035718097 0.18460684 128 0 0 1.0
0.77839696 -0.1519313 -0.26556346 0 136 255 0.25925675
0.09461347 -0.09113799 0.19716528 0 0 192 0.06549125
-0.18947247 -0.111040294 -0.29359183 0 192 255 0.31727284
-0.5834339 -0.07197442 -0.19972938 0 84 255 0.2105753
0.3476944 0.035902202 0.2599575 0 128 255 0.25163993
-0.35162416 0.0015077027 0.41407004 0 0 188 0.061587643
0.028583867 0.028036876 0.15529655 0 0 156 0.028589683
0.6367559 -0.09719993 -0.15071234 255 60 0 0.8157738
0.38812912 0.11701063 -0.2510061 0 0 128 0.0
-0.8045103 0.2604116 0.3068018 255 124 0 0.75625324
-0.32181415 -0.22378385 0.24898516 0 228 255 0.3517761
0.60166615 -0.0909859 -0.17346095 255 180 0 0.69890267
-0.64403164 -0.07151814 0.072406456 0 48 255 0.17313981
0.68175346 -0.22500059 0.3962101 0 180 255 0.30450323
-0.8743857 0.28654966 0.04946231 128 0 0 1.0
0.7670553 0.040986415 0.2897675 34 255 222 0.41055843
-0.7971882 -0.08157793 0.26521555 0 160 255 0.28589973
-0.002747066 0.14712483 0.03770778 0 0 208 0.08142842
0.560232 -0.026824843 -0.14460695 0 0 255 0.12736529
-0.40772432 -0.11156175 -0.28822517 0 52 255 0.17913878
-0.6589584 0.37428492 -0.046290405 0 56 255 0.18111046
0.3299431 0.2231056 -0.1352859 0 0 128 0.0
-0.28885365 -0.07475552 -0.23686154 0 0 128 0.0
-0.6923534 0.37763095 -0.25287464 0 92 255 0.21807024
-0.14501818 -0.07453824 -0.15379764 0 0 128 0.0
0.7699667 -0.11503815 0.25865385 2 255 254 0.37789145
0.12455385 -0.010616192 0.04772412 0 0 128 0.0
-0.013132769 -0.07992664 0.0540468 0 0 128 0.0
0.6376685 -0.0909859 0.05085287 255 104 0 0.7733369
-0.6571985 0.054587774 0.31010437 128 0 0 1.0
-0.47786042 -0.054614205 -0.28822517 0 0 196 0.069789626
0.3882812 0.0022247098 -0.23970784 0 32 255 0.15912467
0.11473306 0.054522593 0.30656278 0 0 128 0.0
-0.7009358 -0.057308406 0.28218463 0 192 255 0.31743878
-0.09228574 -0.17257233 -0.40503174 0 0 168 0.041181035
0.8849265 -0.1293565 -0.38760638 98 255 158 0.47092536
0.33750424 -0.15121429 -0.00859334 0 0 236 0.108553536
0.26215357 -0.16853103 -0.39927396 255 156 0 0.724178
-0.5873666 -0.13956839 -0.1885615 0 172 255 0.2957456
-0.20366046 -0.0947882 0.12324861 0 0 168 0.04034361
0.11516761 -0.102262415 -0.26332554 0 0 128 0.0
-0.6391647 -0.021414718 0.37874126 0 216 255 0.33979928
0.11812254 -0.0893998 0.017935833 0 0 204 0.07558856
-0.30551857 -0.021631991 -0.28763855 0 0 192 0.062909834
-0.24109681 -0.096939206 0.043878365 0 0 128 0.0
0.2811433 0.32824457 0.21572049 0 0 128 0.0
-0.24915767 -0.08301195 0.042009804 0 0 128 0.0
0.2983732 0.31872794 0.25952294 0 0 128 0.0
0.24003506 -0.04357668 0.26990867 0 0 144 0.016839731
-0.57545996 -0.26697797 -0.3121036 128 0 0 1.0
0.14778045 -0.091159716 -0.18662776 0 0 128 0.0
-0.18254142 -0.09309346 0.16998428 0 0 128 0.0
-0.7050857 0.37411112 -0.16522627 128 0 0 1.0
-0.79992586 -0.12681441 -0.19603573 0 240 255 0.3642951
-0.4374257 -0.15219203 0.39021334 0 108 255 0.23183993
-0.1272886 0.3874952 -0.16361843 50 255 206 0.4239722
0.72105825 0.037575208 -0.2630648 128 0 0 1.0
-0.038423482 0.16020474 0.12079341 0 0 140 0.011875555
-0.64739937 0.23727188 -0.32950726 255 224 0 0.6574345
0.68047154 0.016803803 -0.29287484 128 0 0 1.0
-0.5930591 -0.049464807 0.28544375 128 0 0 1.0
0.44064426 0.003919447 0.14929977 0 148 255 0.27245274
0.7760504 0.0074827415 -0.20737745 128 0 0 1.0
0.57700557 -0.09033407 -0.34636772 0 116 255 0.24020185
0.7193418 -0.25820008 -0.3989698 128 0 0 1.0
-0.11844554 -0.078449175 0.04489955 0 0 128 0.0
0.8695869 0.029536068 0.38801888 128 0 0 1.0
0.33387575 -0.15121429 -0.1600334 0 0 220 0.09054469
-0.3831941 -0.0909859 0.043248273 0 0 228 0.0984494
0.8053607 -0.10843301 -0.122444995 255 56 0 0.8209659
-0.35097235 -0.26793396 -0.3848035 0 128 255 0.25200325
0.5906286 -0.09255026 -0.4105505 156 0 0 0.9732749
-0.24570301 -0.09213745 -0.18717095 0 0 128 0.0
0.07262534 0.37111273 0.2062256 0 0 128 0.0
-0.3852582 -0.15121429 0.06573614 0 120 255 0.24651717
0.77839696 -0.1519313 -0.26556346 0 236 255 0.35995123
0.480362 0.17085117 0.055719804 0 28 255 0.1566021
-0.85128945 0.07249116 -0.2548084 236 0 0 0.8976776
0.29265884 -0.16227354 0.3018914 0 0 136 0.008227828
-0.8240215 -0.07264796 -0.16694273 255 184 0 0.69726175
-0.3903424 0.1917964 0.33543852 0 0 128 0.0
-0.42673585 -0.13100779 -0.3977965 0 68 255 0.19427295
-0.16715842 0.32865736 -0.34163114 0 0 128 0.0
0.73752767 -0.19875388 0.30339056 0 228 255 0.35066015
-0.21684901 0.2243658 -0.33196247 0 0 128 0.0
0.4830779 0.100215346 0.0007711758 255 152 0 0.7272251
0.56040573 -0.08807442 -0.041836284 0 240 255 0.36128312
0.3008066 -0.149324 0.2590884 0 0 128 0.0
0.7331605 -0.24538091 0.4230217 255 116 0 0.7638619
0.2795355 -0.092159174 -0.17780644 0 248 255 0.37081513
0.41276798 -0.15121429 -0.095024996 0 12 255 0.13815069
-0.28529036 -0.090095066 -0.2734288 0 0 148 0.019616999
0.74263364 -0.075103156 0.3505391 128 0 0 1.0
0.4816656 0.1065163 -0.034709696 0 16 255 0.144287
-0.0152186 0.080595486 0.3196427 0 0 148 0.021679364
-0.06601729 0.09993289 -0.31536272 0 0 128 0.0
-0.8823814 0.25693518 -0.15642665 128 0 0 1.0
0.11516761 -0.102262415 -0.26332554 0 0 128 0.0
-0.46893048 0.044158615 0.4136355 0 0 200 0.07388578
-0.8611102 0.036945116 0.25428665 118 255 138 0.49257547
0.80090654 0.1533606 -0.0928957 128 0 0 1.0
-0.5183169 -0.2879449 0.24348812 246 255 10 0.617614
0.76364404 -0.021827538 -0.28861627 255 136 0 0.7448882
0.59184533 -0.17502753 -0.39292955 14 255 242 0.38838485
-0.8316479 -0.07193095 -0.17945772 128 0 0 1.0
-0.19851106 -0.09202881 0.19875138 0 0 128 0.0
-0.5908212 0.05591315 -0.32051212 255 188 0 0.69125223
0.7337254 -0.09765621 0.35790467 0 204 255 0.32916898
-0.3654211 -0.15121429 -0.03838163 0 0 208 0.08148982
-0.034512546 0.15268706 0.12928882 0 0 180 0.051114142
-0.39114633 -0.2676515 0.3776766 0 88 255 0.21423522
-0.37013593 0.0013338862 0.4279321 0 0 128 0.0
-0.88583606 0.16837426 -0.1926028 0 140 255 0.26635158
-0.48368338 -0.19447356 -0.32994178 0 196 255 0.3195279
0.76594716 -0.120469995 0.35027835 255 152 0 0.72690463
-0.42239034 -0.28898782 0.278969 255 44 0 0.83268684
-0.8240215 -0.07264796 -0.16694273 142 255 114 0.51486
0.56040573 -0.08807442 -0.041836284 126 255 130 0.50157934
-0.76820385 -0.08027428 -0.25487357 0 76 255 0.20056508
-0.13802196 0.34716913 -0.33537367 0 0 148 0.02067125
-0.6464651 -0.07158331 0.2055738 0 44 255 0.16959575
0.31929666 -0.09315863 -0.22884414 0 0 244 0.115206726
-0.6988717 0.081486315 0.31010437 128 0 0 1.0
-0.6321033 0.20274702 0.33313543 0 228 255 0.35162017
-0.6221956 -0.10528253 -0.30682382 128 0 0 1.0
-0.3080607 -0.0909859 0.013177529 0 0 128 0.0
-0.87901366 0.2548711 -0.074144945 194 255 62 0.5654799
0.4663261 0.087396175 -0.14095674 0 0 128 0.0
-0.244508 -0.083403036 -0.011048538 0 8 255 0.13414502
0.13207154 0.3615527 -0.2475949 0 0 128 0.0
0.5067608 -0.089856066 -0.18310793 0 220 255 0.34509087
0.6396457 0.04322434 0.36101168 128 0 0 1.0
0.79551816 -0.07184404 0.033210207 128 0 0 1.0
-0.56883305 -0.100459054 0.3571442 0 52 255 0.17776045
0.6876415 0.014761427 -0.2202618 128 0 0 1.0
0.055417225 -0.04857399 -0.28107685 0 0 128 0.0
-0.86237043 0.33587086 0.154623 128 0 0 1.0
-0.15953209 -0.07579844 -0.05343872 0 0 128 0.0
-0.5375674 0.38858157 -0.2689312 0 0 220 0.09038404
0.31857967 0.22823326 0.09611107 0 0 168 0.042783752
-0.5724833 -0.14754236 -0.28227186 128 0 0 1.0
-0.24048844 -0.08331612 0.025475245 0 0 128 0.0016712659
0.6803411 0.034033645 -0.026453275 0 56 255 0.1815576
-0.82845396 -0.0789489 0.0155023625 0 152 255 0.27595976
0.19707996 -0.17287652 0.34710616 0 0 148 0.02022777
-0.056631047 -0.07794944 0.13013619 0 0 172 0.04601166
-0.57085377 -0.07197442 0.09191767 0 32 255 0.15735207
0.39673316 -0.076949984 0.15857738 0 112 255 0.23796476
-0.06601729 0.09993289 -0.31536272 0 0 140 0.012600812
-0.41298237 -0.13541846 0.34814906 128 0 0 1.0
0.86760974 -0.18343605 -0.30667174 128 0 0 1.0
0.8045785 -0.08527159 0.30339056 128 0 0 1.0
-0.39416644 0.29895598 0.3349388 0 0 128 0.0
-0.85213685 0.09319739 0.08101051 128 0 0 1.0
0.76681626 -0.07590708 -0.27175578 136 0 0 0.9956745
0.69250846 0.12072603 -0.14412895 255 136 0 0.74156404
0.82096094 0.0013773394 0.2059866 128 0 0 1.0
-0.18097705 0.25022143 -0.33291847 0 0 128 0.0
-0.40083674 0.35668573 -0.3290727 0 0 128 0.0
-0.30169457 0.10212736 0.32409683 0 0 128 0.0
-0.6320816 -0.09196364 -0.4077694 0 156 255 0.2823167
0.65324706 -0.15121429 0.017001554 255 232 0 0.64860547
0.19188711 0.35559934 -0.17919698 0 0 128 0.0
0.5843277 0.018585451 0.3462805 0 28 255 0.15527293
0.52353436 0.21899912 0.024888607 0 0 148 0.021079704
-0.6988717 0.081486315 0.31010437 0 56 255 0.1825713
-0.3649431 0.3900156 0.24022901 0 32 255 0.1605669
0.58947706 -0.079752825 -0.35929555 128 0 0 1.0
0.20418482 -0.1727027 -0.31097376 0 36 255 0.16266471
-0.39514416 -0.06921503 -0.2781002 0 0 188 0.059226666
0.57700557 -0.09033407 -0.34636772 162 255 94 0.53366435
-0.10725593 0.18675564 0.33515608 0 0 128 0.0
0.1986226 -0.17268097 0.3012613 0 132 255 0.25796813
-0.555449 0.014826609 -0.30784503 0 224 255 0.3454496
0.79545295 -0.0746686 -0.05382982 128 0 0 1.0
-0.5221626 -0.16979122 -0.27062592 94 255 162 0.46764746
0.39738497 0.14114979 0.053525336 0 0 128 0.0
-0.43610033 -0.28455544 0.40920308 0 28 255 0.1530892
-0.077120006 -0.17259406 0.40900755 0 0 128 0.0
-0.84766096 0.045092896 -0.139023 0 0 152 0.026738716
0.63356197 0.12650552 0.10317247 255 236 0 0.6446848
